0,405,405,405,407,409,410,411,413,415,417,418,422,424,427,427,428,430,431,431,432,432,432,431,431,432,433,434,468,468,469,472,474,477,480,0,0,0,0,0,0,0,0,0,0,0,0,0,0,0,0,0,0,2679,2679,2700,2700,2700,2700,2700,2721,2700,2700,2700,2721,2721,2721,2743,2743,2743,2721,2721,2721,2721,2765,2743,2743,1761,1743,1734,1726,1726,1726,1734,1743,1761,1770,1779,1798,1798,1807,1807,1807,1826,1836,1836,1846,1876,1886,2765,2765,2765,2765,2765,2787,2787,2787,2787,2810,2765,2765,2787,2787,2810,2765,2765,2743,2721,2638,2598,2578,2503,2450,2416,2366,2318,2287,2272,2272,2272,2257,2214,2214,2228,2243,2257,2272,1961,1950,1939,1929,639,637,636,626,622,618,613,605,602,598,595,591,591,589,588,588,0,0,0
0,404,404,405,406,408,409,411,412,414,416,417,421,422,424,427,428,429,430,431,431,430,428,428,425,425,433,434,470,470,471,472,474,478,480,488,490,0,0,0,0,0,0,0,0,0,0,0,0,0,0,0,0,2700,2700,2721,2721,2721,2721,2721,2721,2743,2743,2743,2743,2743,2743,2743,2765,2765,2743,2743,2743,2765,2787,2787,2765,1743,1734,1726,1717,1717,1726,1743,1743,1752,1761,1770,1779,1788,1807,1807,1807,1817,1836,1836,1846,1856,1866,1866,1886,2810,2810,2810,2810,2833,2833,2833,2810,2787,2787,2810,2833,2857,2833,2833,2743,2721,2658,2618,2559,2503,2450,2433,2366,2318,2303,2257,2228,2228,2228,2214,2214,2228,2228,2257,1984,1961,1950,1939,1929,639,637,636,630,624,618,613,611,604,600,598,598,591,590,590,590,0,0,0
0,403,403,404,406,407,409,410,411,413,414,416,419,421,423,424,427,429,430,430,428,428,422,422,423,423,424,424,427,472,472,473,475,478,481,488,490,494,0,0,0,0,0,0,0,0,0,0,0,0,0,0,0,0,2721,2721,2721,2743,2743,2743,2743,2743,2765,2765,2765,2743,2743,2765,2787,2810,2810,2810,2810,2810,2810,2787,2787,1743,1734,1708,1708,1708,1717,1734,1743,1743,1743,1761,1779,1788,1788,1807,1807,1807,1826,1826,1846,1856,1866,1866,1876,1876,1886,1897,1897,2833,2857,2833,2833,2833,2833,2857,2857,2905,2857,2833,2765,2721,2658,2618,2559,2503,2485,2433,2366,2303,2303,2257,2228,2228,2228,2228,2228,2228,2228,1973,1973,1973,1950,1929,671,670,644,637,630,626,621,616,612,609,605,600,598,594,590,589,589,0,0,0
0,403,403,404,405,406,407,409,410,412,413,415,418,420,422,424,427,428,429,425,425,421,421,421,421,421,422,423,424,424,476,476,476,478,482,487,492,494,0,0,0,0,0,0,0,0,0,0,0,0,0,0,0,0,0,2721,2721,2743,2765,2787,2787,2810,2810,2810,2787,2787,2787,2810,2810,2810,2810,2833,2833,2833,2833,2833,2810,1743,1726,1700,1700,1700,1708,1726,1734,1743,1743,1761,1770,1779,1779,1798,1807,1807,1817,1826,1846,1856,1856,1866,1876,1876,1886,1897,1897,1907,1907,1907,2881,2881,2881,2905,2905,2881,2857,2833,2743,2700,2658,2618,2559,2503,2485,2433,2366,2303,2303,2257,2228,2228,2228,2228,2214,2214,1846,1846,1973,1996,1950,1929,671,662,647,643,633,626,625,618,615,613,607,601,598,593,590,588,588,0,0,0
0,403,403,404,404,405,407,408,410,412,412,415,417,420,422,424,427,428,422,421,421,421,420,419,419,420,420,421,424,425,478,478,479,480,484,486,493,0,0,0,0,0,0,0,0,0,0,0,0,0,0,0,0,0,0,0,2833,2787,2787,2810,2810,2810,2833,2810,2810,2833,2833,2833,2833,2833,2833,2833,2857,2857,2857,2857,2833,1734,1717,1700,1700,1700,1708,1717,1726,1734,1743,1752,1761,1770,1779,1788,1798,1807,1817,1826,1836,1846,1846,1856,1876,1886,1886,1897,1907,1907,1907,1907,1950,1973,2905,2905,2905,2881,2833,2810,2743,2700,2638,2598,2559,2485,2468,2433,2366,2318,2303,2257,2243,2228,2228,2228,2214,2068,1846,1846,2019,1984,1950,1929,671,662,650,644,638,632,626,624,617,616,615,603,600,593,590,588,588,0,0,0
0,403,403,404,404,405,406,408,409,411,412,415,417,420,422,424,424,421,421,421,421,420,420,419,419,419,420,421,423,425,427,482,482,482,485,486,0,0,0,0,0,0,0,0,0,0,0,0,0,0,0,0,0,0,0,0,0,2787,2787,2810,2833,2833,2833,2833,2833,2857,2857,2857,2881,2881,2857,2857,2881,2857,2857,2857,2857,1717,1708,1700,1692,1692,1700,1708,1726,1734,1734,1752,1761,1770,1770,1779,1788,1807,1807,1817,1817,1836,1846,1856,1876,1886,1886,1897,1907,1918,1929,1929,1950,1973,1973,2031,2930,2881,2833,2765,2743,2700,2638,2598,2559,2485,2450,2416,2382,2318,2303,2272,2243,2200,2200,2200,2228,2055,2043,2043,2019,1984,1950,1939,675,664,656,645,639,633,629,626,624,621,618,614,603,594,591,591,0,0,0,0
0,402,402,403,404,405,406,408,409,410,412,415,417,420,422,424,423,421,421,421,421,420,420,419,419,419,420,420,422,424,427,427,486,486,487,490,0,0,0,0,0,0,0,0,0,0,0,0,0,0,0,0,0,0,0,0,0,2787,2787,2833,2833,2833,2881,2881,2881,2881,2881,2881,2905,2905,2905,2905,2905,2857,2857,2857,2905,1708,1708,1700,1692,1692,1692,1700,1717,1726,1734,1743,1761,1770,1770,1770,1779,1788,1798,1807,1817,1836,1846,1856,1856,1876,1886,1897,1907,1918,1929,1939,1950,1961,1973,1973,1961,1961,1973,2743,2743,2700,2638,2598,2559,2503,2450,2416,2382,2334,2287,2257,2228,2186,2186,2186,2068,2055,2055,2043,2019,1984,1961,1950,1950,664,657,646,643,638,632,631,627,624,621,615,610,594,593,593,0,0,0,0
0,402,402,403,404,404,405,408,409,410,413,415,417,420,422,425,423,422,421,421,421,421,420,420,419,419,420,420,422,424,427,427,0,490,490,492,0,0,0,0,0,0,0,0,0,0,0,0,0,0,0,0,0,0,0,0,0,2787,2787,2833,2881,2905,2905,2905,2905,2905,2930,2930,2930,2930,2930,2930,2930,2930,2930,2930,2980,1700,1700,1692,1683,1683,1692,1700,1708,1717,1726,1734,1752,1761,1770,1770,1779,1779,1788,1807,1817,1826,1826,1846,1856,1866,1886,1897,1897,1897,1918,1929,1939,1950,1961,1973,1961,1961,1973,1973,1973,1973,2638,2598,2522,2503,2468,2416,2382,2318,2287,2243,2214,2172,2172,2118,2068,2068,2055,2031,2019,1996,1984,1973,1961,674,659,651,646,644,637,636,634,630,623,616,611,606,606,0,0,0,0,0
0,402,402,403,403,404,405,408,409,410,413,415,417,419,421,422,424,423,423,423,430,431,430,420,420,420,420,421,423,424,427,427,0,494,494,494,0,0,0,0,0,0,0,0,0,0,0,0,0,0,0,0,0,0,0,0,0,2787,2787,2857,2905,2905,2905,2930,2930,2930,2930,2930,2930,2930,2955,2955,2980,2955,2955,2980,2980,1700,1692,1675,1675,1675,1683,1700,1700,1708,1708,1734,1734,1743,1752,1770,1779,1779,1779,1798,1817,1817,1826,1836,1856,1856,1876,1886,1886,1897,1897,1918,1929,1939,1939,1939,1961,1984,1973,1973,1973,1973,2618,2578,2522,2503,2433,2399,2366,2318,2272,2243,2214,2172,2158,2118,2080,2068,2055,2031,2019,2007,2007,1996,1984,673,666,656,651,649,645,638,636,633,626,613,611,606,606,0,0,0,0,0
0,402,402,403,403,404,405,408,409,411,413,415,417,418,419,421,422,425,425,428,428,430,429,428,421,421,422,422,424,425,427,0,0,0,0,0,0,0,0,0,0,0,0,0,0,0,0,0,0,0,0,0,0,0,0,0,3033,2833,2833,2881,2930,2930,2930,2980,2980,2955,2955,2955,2930,2930,2980,2980,2980,3006,2980,2980,1700,1700,1683,1675,1667,1667,1675,1683,1692,1700,1708,1717,1734,1743,1743,1761,1779,1779,1779,1788,1798,1807,1807,1826,1846,1856,1856,1876,1886,1897,1897,1907,1929,1929,1939,1939,1950,1973,1984,1984,1984,1996,2007,2031,2043,2043,2416,2399,2366,2303,2272,2243,2214,2186,2158,2118,2105,2093,2055,2031,2019,2019,2019,2007,1984,673,669,664,657,654,643,638,637,636,634,613,612,606,606,606,0,0,0,0
0,402,402,403,404,404,406,408,410,411,413,415,417,418,418,419,420,422,423,425,426,428,429,428,424,424,424,424,425,427,427,0,0,0,0,0,0,0,0,0,0,0,0,0,0,0,0,0,0,0,0,3006,3006,3033,3060,3060,3006,2930,2930,2930,2955,2980,2980,3006,3006,3006,3006,2980,2980,2980,3006,3006,3006,3006,3006,3033,1700,1683,1675,1659,1659,1659,1667,1675,1683,1692,1708,1708,1717,1734,1743,1743,1752,1770,1779,1779,1798,1807,1807,1817,1836,1836,1856,1866,1886,1886,1886,1897,1918,1918,1929,1939,1939,1950,1961,1973,1984,1984,1996,2019,2031,2031,2055,2068,2068,2303,2257,2228,2214,2186,2158,2132,2118,2093,2080,2068,2055,2031,2019,2019,2007,2007,670,668,659,656,643,639,638,638,634,614,612,609,606,606,0,0,0,0
0,403,403,403,403,404,406,408,410,412,413,414,415,416,417,418,419,421,422,423,425,427,429,429,427,426,425,425,425,462,0,0,0,0,0,0,0,0,0,0,0,0,0,0,0,0,0,0,0,0,0,2980,2980,3006,3033,3033,3006,3006,3006,3006,3006,3006,3006,3006,3033,3033,3033,3033,3033,3033,3033,3033,3033,3033,3033,3060,3087,1675,1667,1651,1651,1651,1667,1675,1675,1692,1708,1708,1717,1726,1734,1743,1752,1761,1770,1779,1779,1807,1807,1817,1817,1826,1836,1856,1866,1876,1886,1897,1907,1918,1918,1929,1939,1939,1961,1973,1973,1984,1984,2007,2019,2031,2055,2068,2068,2068,2080,2200,2200,2200,2186,2132,2118,2093,2080,2080,2068,2055,2043,2043,2031,2031,670,670,660,651,647,640,640,638,634,618,612,610,605,603,603,0,0,0
0,402,402,403,403,404,406,408,410,411,412,414,415,416,417,418,419,420,421,422,423,425,429,431,431,431,431,462,462,462,464,466,0,0,0,0,0,0,0,0,0,0,0,0,0,0,0,0,0,0,0,2980,2980,3006,3033,3060,3006,3006,3006,3033,3006,3006,3006,3033,3033,3060,3060,3060,3060,3060,3060,3087,3060,3060,3060,3087,3115,1675,1667,1643,1643,1643,1659,1667,1675,1683,1700,1708,1717,1726,1726,1734,1734,1752,1761,1770,1770,1788,1807,1817,1817,1817,1826,1846,1856,1856,1856,1886,1897,1907,1918,1929,1929,1939,1950,1973,1973,1984,1984,2007,2019,2031,2043,2055,2055,2068,2068,2080,2105,2158,2186,2132,2118,2105,2105,2080,2068,2068,2080,2068,2055,2031,671,671,664,649,646,641,638,636,622,618,612,612,605,603,603,0,0,0
0,402,402,403,403,405,407,409,410,411,412,414,415,416,416,417,418,419,420,421,423,425,428,431,434,435,435,460,460,462,463,466,0,0,0,0,0,0,0,0,0,0,0,0,0,0,0,0,0,0,0,2980,2980,3006,3033,3060,3060,3033,3033,3033,3060,3033,3033,3060,3087,3087,3087,3115,3115,3115,3115,3115,3115,3115,3115,3115,3115,1675,1667,1643,1643,1643,1651,1651,1667,1675,1692,1700,1708,1708,1717,1726,1734,1743,1761,1761,1770,1779,1788,1807,1807,1817,1826,1846,1856,1856,1856,1876,1886,1897,1907,1918,1929,1939,1950,1950,1961,1973,1984,1996,2007,2019,2031,2043,2055,2068,2068,2080,2105,2118,2158,2132,2132,2118,2118,2105,2105,2105,2093,2080,2080,2068,2019,681,671,649,645,641,633,630,621,618,613,612,605,604,604,0,0,0
0,403,403,403,404,406,408,409,410,411,412,414,415,416,416,417,418,419,420,421,423,425,428,431,434,435,459,459,460,462,463,466,0,0,0,0,0,0,0,0,0,0,0,0,0,0,0,0,0,0,0,3006,3006,3033,3060,3060,3087,3087,3087,3087,3115,3115,3115,3115,3115,3115,3115,3115,3115,3115,3143,3143,3172,3143,3143,3143,3143,1675,1659,1643,1643,1643,1643,1651,1667,1675,1692,1692,1700,1700,1708,1717,1734,1743,1752,1761,1770,1779,1779,1779,1798,1807,1817,1817,1826,1856,1866,1876,1886,1886,1886,1897,1918,1929,1939,1939,1950,1973,1973,1996,2007,2019,2019,2019,2043,2068,2068,2080,2093,2105,2118,2132,2145,2145,2118,2118,2118,2118,2105,2093,2093,2080,2080,692,690,690,645,638,633,626,621,618,615,613,613,0,0,0,0,0
0,403,403,404,404,406,408,409,411,412,413,414,415,416,416,418,418,419,420,421,423,425,427,431,434,436,440,442,460,462,464,466,470,0,0,0,0,0,0,0,0,0,0,0,0,0,0,0,0,0,0,3115,3087,3087,3115,3115,3115,3115,3115,3115,3143,3143,3143,3172,3143,3143,3172,3143,3143,3143,3143,3172,3202,3202,3202,3232,1675,1675,1659,1635,1635,1635,1643,1659,1667,1675,1675,1683,1700,1700,1700,1708,1717,1734,1734,1743,1761,1770,1770,1779,1788,1798,1807,1807,1817,1846,1866,1876,1876,1876,1876,1886,1907,1918,1929,1939,1950,1961,1961,1984,2007,2007,2019,2019,2031,2055,2068,2068,2068,2093,2105,2118,2132,2145,2132,2132,2132,2132,2118,2105,2093,2093,3202,692,690,690,645,636,633,626,622,618,615,614,614,0,0,0,0,0
0,403,403,404,405,406,408,411,412,413,414,415,416,417,417,418,419,419,421,422,423,425,427,431,433,436,440,442,461,462,464,466,470,0,0,0,0,0,0,0,0,0,0,0,0,0,0,0,0,0,0,3115,3115,3115,3115,3115,3143,3143,3143,3143,3172,3172,3202,3172,3172,3202,3232,3232,3202,3202,3202,3232,3232,3202,3202,3232,1659,1659,1651,1635,1628,1628,1635,1659,1667,1667,1675,1675,1683,1692,1700,1708,1708,1726,1734,1734,1743,1761,1770,1779,1779,1788,1807,1807,1817,1836,1846,1846,1856,1876,1876,1886,1897,1907,1918,1939,1950,1950,1950,1973,1984,1984,2019,2019,2019,2031,2043,2055,2055,2080,2093,2118,2132,2145,2132,2132,2132,2145,2132,2118,2118,3263,3232,3232,3232,3232,3232,636,632,626,622,619,616,616,0,0,0,0,0,0
0,404,404,404,405,407,410,411,413,415,416,417,417,417,418,418,419,420,421,423,424,425,427,431,433,436,439,443,463,463,464,466,469,0,0,0,0,0,0,0,0,0,0,0,0,0,0,0,0,0,0,3115,3115,3143,3143,3143,3172,3172,3202,3202,3202,3232,3232,3232,3232,3232,3232,3263,3263,3263,3263,3263,3263,3263,3263,3263,1659,1659,1643,1628,1628,1628,1635,1643,1659,1667,1667,1667,1675,1692,1700,1708,1708,1717,1726,1734,1743,1743,1752,1770,1770,1788,1798,1807,1807,1826,1846,1846,1846,1866,1876,1886,1897,1907,1918,1929,1939,1939,1939,1961,1973,1984,1996,2019,2019,2019,2043,2055,2055,2068,2080,2105,2132,2132,2118,2118,2132,2132,2132,2132,2132,3263,3263,3232,3232,3232,3232,3263,632,631,622,619,619,0,0,0,0,0,0,0
0,404,404,405,406,408,410,412,414,416,416,417,417,417,418,418,418,420,421,422,423,425,428,430,433,437,439,444,449,461,465,466,469,0,0,0,0,0,0,0,0,0,0,0,0,0,0,0,0,0,0,3143,3143,3202,3202,3202,3202,3232,3232,3232,3232,3263,3263,3263,3263,3263,3294,3294,3294,3294,3294,3294,3294,3326,3294,3294,3294,1651,1643,1620,1620,1620,1635,1643,1643,1651,1659,1667,1675,1692,1700,1700,1708,1717,1726,1726,1734,1743,1752,1761,1770,1788,1798,1798,1807,1817,1836,1836,1846,1856,1866,1876,1886,1907,1918,1918,1929,1929,1929,1950,1961,1973,1984,1984,1996,2007,2043,2043,2043,2055,2068,2093,2105,2118,2105,2105,2118,2118,2118,2132,2132,3263,3263,3263,3263,3263,3263,3263,3263,3326,3326,0,0,0,0,0,0,0,0,0
0,405,405,406,407,409,411,413,414,415,416,416,417,417,418,418,418,420,421,422,423,425,428,430,433,439,440,445,449,461,466,468,471,475,0,0,0,0,0,0,0,0,0,0,0,0,0,0,0,0,3232,3202,3202,3232,3232,3263,3263,3263,3263,3263,3263,3263,3294,3294,3294,3326,3358,3326,3326,3326,3358,3326,3326,3358,3358,3358,3294,1643,1635,1612,1612,1612,1628,1635,1643,1643,1651,1659,1675,1692,1692,1700,1700,1708,1726,1726,1734,1743,1752,1752,1770,1788,1788,1798,1807,1807,1817,1826,1836,1846,1856,1866,1886,1897,1897,1907,1929,1929,1929,1939,1950,1950,1961,1984,1984,2007,2031,2031,2031,2043,2068,2080,2080,2105,2105,2105,2105,2118,2118,2132,2132,3358,3326,3294,3263,3263,3263,3294,3326,3326,3326,0,0,0,0,0,0,0,0,0
0,407,407,408,408,410,412,413,414,415,416,416,417,418,418,419,419,420,421,422,424,426,429,431,433,440,442,447,449,457,466,468,472,475,0,0,0,0,0,0,0,0,0,0,0,0,0,0,0,0,3232,3232,3232,3263,3294,3263,3263,3263,3326,3358,3326,3326,3326,3326,3326,3358,3358,3326,3326,3358,3358,3358,3358,3358,3358,3358,3326,1635,1628,1612,1612,1612,1620,1628,1635,1643,1643,1651,1675,1675,1675,1683,1700,1708,1717,1726,1734,1734,1743,1743,1752,1779,1779,1779,1798,1798,1807,1817,1826,1846,1846,1856,1866,1886,1886,1907,1907,1907,1929,1939,1939,1950,1950,1973,1984,1984,1996,2019,2031,2043,2055,2068,2080,2105,2093,2093,2105,2105,2118,2132,2132,3391,3358,3294,3294,3294,3294,3326,3326,3326,3326,0,0,0,0,0,0,0,0,0
0,409,409,409,409,411,412,414,414,415,416,417,417,418,419,420,420,421,422,423,426,428,430,432,434,440,449,449,452,457,468,469,473,475,0,0,0,0,0,0,0,0,0,0,0,0,0,0,0,0,3263,3263,3263,3294,3326,3294,3294,3294,3358,3358,3358,3358,3358,3358,3358,3358,3358,3358,3358,3358,3391,3391,3425,3391,3391,3425,3494,1635,1620,1605,1605,1605,1612,1620,1635,1643,1643,1643,1659,1667,1675,1683,1692,1700,1700,1708,1717,1734,1734,1743,1752,1761,1770,1770,1798,1798,1807,1807,1826,1826,1836,1846,1846,1866,1886,1897,1907,1907,1918,1929,1939,1939,1950,1961,1973,1984,1996,2007,2031,2043,2055,2068,2080,2105,2093,2093,2080,2080,2080,2105,2105,2105,3358,3326,3326,3358,3358,3358,3326,3326,3326,3358,0,0,0,0,0,0,0,0
0,409,409,410,411,412,413,414,414,415,415,416,417,418,419,420,420,422,423,425,427,429,431,433,435,439,442,454,457,463,470,471,473,0,0,0,0,0,0,0,0,0,0,0,0,0,0,0,0,0,3294,3294,3294,3294,3294,3326,3358,3358,3358,3391,3391,3391,3391,3425,3391,3391,3391,3391,3391,3425,3459,3459,3494,3459,3459,3459,3494,1635,1620,1597,1597,1597,1612,1612,1628,1635,1643,1643,1659,1667,1667,1675,1683,1692,1692,1700,1708,1717,1726,1734,1743,1752,1761,1770,1798,1798,1798,1798,1817,1817,1826,1836,1846,1866,1876,1886,1897,1897,1897,1897,1907,1929,1939,1961,1973,1984,1996,2007,2007,2019,2031,2055,2055,2068,2080,2080,2080,2080,2080,2080,2093,2105,2105,3326,3326,3391,3425,3425,3425,3358,3358,3358,3391,0,0,0,0,0,0,0
0,411,411,411,412,413,414,415,415,415,415,416,417,418,419,420,421,423,425,427,428,430,432,434,436,439,442,463,463,463,470,472,474,0,0,0,0,0,0,0,0,0,0,0,0,0,0,0,0,0,3263,3263,3263,3263,3294,3326,3326,3326,3358,3358,3391,3391,3391,3425,3425,3425,3425,3425,3425,3425,3494,3530,3530,3530,3494,3494,3494,1628,1620,1597,1597,1597,1612,1612,1620,1628,1635,1643,1651,1651,1659,1667,1675,1692,1692,1700,1708,1708,1717,1726,1743,1752,1761,1770,1788,1788,1798,1798,1807,1807,1826,1826,1836,1856,1866,1866,1886,1886,1897,1897,1907,1929,1939,1939,1961,1984,1996,1996,1996,2019,2019,2031,2031,2055,2068,2068,2068,2068,2068,2068,2080,2093,2093,3358,3358,3425,3425,3425,3425,3425,3425,3391,3391,3391,3494,0,0,0,0,0
0,412,412,412,413,414,414,414,415,415,415,416,417,418,419,420,422,424,425,428,430,431,434,436,438,442,442,463,463,464,470,473,474,0,0,0,0,0,0,0,0,0,0,0,0,0,0,0,0,3232,3232,3232,3263,3263,3294,3326,3326,3326,3358,3358,3358,3391,3391,3391,3391,3425,3391,3391,3391,3391,3494,3494,3494,3494,3530,3530,3494,1620,1605,1597,1597,1597,1605,1612,1612,1612,1628,1635,1635,1651,1651,1667,1675,1683,1692,1700,1700,1700,1717,1726,1734,1743,1743,1761,1779,1788,1788,1788,1798,1807,1817,1817,1817,1836,1856,1856,1866,1886,1897,1897,1907,1918,1929,1929,1939,1961,1973,1973,1984,2007,2019,2019,2031,2043,2068,2068,2068,2068,2068,2068,2080,2080,2093,3391,3425,3459,3459,3425,3425,3459,3459,3425,3391,3391,3459,0,0,0,0,0
0,413,413,413,414,414,414,414,415,415,415,416,417,418,419,420,422,424,425,428,431,432,436,439,441,447,452,465,465,466,472,474,476,0,0,0,0,0,0,0,0,0,0,0,0,0,0,0,0,3172,3172,3202,3263,3294,3294,3294,3326,3358,3358,3358,3358,3358,3358,3391,3391,3425,3391,3391,3391,3391,3494,3494,3494,3494,3530,3494,3459,1612,1597,1583,1583,1590,1590,1605,1612,1612,1628,1635,1635,1651,1651,1659,1675,1683,1692,1700,1700,1700,1708,1726,1734,1734,1743,1752,1770,1779,1779,1788,1798,1807,1817,1817,1817,1826,1846,1856,1866,1876,1886,1907,1907,1907,1918,1929,1929,1950,1950,1961,1984,1984,1996,1996,2007,2031,2068,2068,2068,2055,2055,2068,2080,2080,2093,3425,3425,3494,3494,3494,3494,3494,3459,3459,3459,3459,3391,3391,0,0,0,0
0,415,415,415,415,415,415,415,415,415,415,416,417,418,419,420,422,424,425,428,431,433,437,440,443,447,452,466,466,469,472,475,478,0,0,0,0,0,0,0,0,0,0,0,0,0,0,0,0,3172,3172,3202,3263,3263,3294,3294,3294,3294,3326,3326,3358,3358,3358,3391,3391,3391,3391,3391,3391,3459,3459,3494,3494,3494,3494,3494,1605,1605,1590,1583,1583,1583,1583,1590,1597,1605,1612,1628,1635,1635,1643,1651,1667,1667,1683,1683,1692,1700,1708,1717,1726,1734,1743,1743,1761,1770,1779,1788,1798,1807,1807,1817,1817,1826,1846,1856,1856,1856,1886,1897,1897,1897,1907,1907,1918,1929,1950,1961,1973,1984,1984,1984,2007,2031,2043,2068,2055,2043,2043,2055,2068,2080,2080,3425,3425,3494,3530,3530,3530,3530,3494,3494,3494,3459,3391,3391,0,0,0,0
0,416,416,416,416,416,416,416,415,415,416,416,417,418,419,420,422,424,426,428,431,433,438,443,444,449,452,466,468,469,472,476,0,0,0,0,0,0,0,0,0,0,0,0,0,0,0,0,0,3232,3232,3232,3232,3263,3263,3263,3263,3263,3294,3326,3326,3358,3358,3358,3391,3391,3391,3391,3391,3391,3425,3459,3459,3459,3459,3459,1605,1597,1590,1583,1575,1575,1583,1583,1590,1597,1605,1628,1628,1628,1635,1651,1667,1667,1675,1675,1683,1692,1708,1708,1717,1734,1734,1743,1743,1761,1770,1779,1788,1798,1807,1807,1826,1826,1826,1846,1846,1846,1866,1876,1876,1897,1897,1897,1907,1929,1939,1950,1961,1973,1973,1984,2007,2031,2043,2055,2043,2031,2031,2043,2043,2055,2055,3530,3530,3530,3530,3567,3530,3530,3530,3567,3530,3494,3494,3494,3494,3494,0,0
0,418,418,418,417,417,417,416,416,416,417,417,417,418,420,421,423,424,426,428,431,434,438,446,447,450,454,467,468,471,474,477,0,0,0,0,0,0,0,0,0,0,0,0,0,0,0,0,3172,3172,3202,3202,3232,3232,3263,3263,3263,3263,3294,3326,3326,3326,3326,3358,3358,3358,3391,3391,3391,3391,3425,3425,3391,3391,3425,3459,3459,1590,1590,1575,1568,1568,1568,1583,1590,1597,1605,1612,1620,1628,1635,1643,1643,1659,1667,1675,1683,1692,1700,1708,1708,1717,1734,1743,1743,1752,1761,1770,1788,1798,1798,1807,1817,1817,1826,1836,1846,1846,1866,1876,1876,1886,1897,1897,1907,1929,1929,1939,1950,1961,1973,1984,1996,2019,2031,2043,2031,2031,2031,2031,2031,2043,2031,2031,3530,3604,3642,3604,3567,3530,3530,3567,3567,3530,3530,3530,3494,3494,0,0
0,419,419,419,419,418,418,418,417,417,417,417,418,420,421,422,424,425,427,429,431,435,439,442,447,450,454,468,470,472,476,479,0,0,0,0,0,0,0,0,0,0,0,0,0,0,0,3143,3143,3172,3172,3202,3232,3232,3263,3263,3263,3263,3263,3326,3294,3294,3294,3326,3358,3358,3391,3391,3391,3391,3425,3425,3391,3391,3425,3459,1583,1583,1583,1561,1554,1554,1568,1568,1575,1590,1597,1597,1612,1628,1635,1635,1635,1643,1659,1675,1683,1683,1692,1700,1708,1708,1717,1734,1743,1752,1752,1761,1770,1779,1779,1788,1807,1807,1817,1826,1836,1836,1846,1856,1856,1876,1886,1897,1907,1929,1929,1939,1950,1950,1961,1973,1984,1996,2019,2019,2019,2019,2031,2019,2019,2031,2031,2031,3642,3642,3642,3642,3604,3567,3567,3642,3567,512,512,504,500,500,500,0
0,421,421,421,420,420,420,419,418,418,418,418,419,421,422,423,424,425,428,429,432,436,439,442,447,452,469,470,472,474,478,481,0,0,0,0,0,0,0,0,0,0,0,0,0,0,0,3143,3143,3143,3172,3172,3232,3232,3232,3232,3263,3263,3263,3294,3263,3263,3263,3294,3326,3358,3358,3391,3391,3391,3391,3391,3391,3425,3425,3425,1575,1575,1575,1554,1554,1554,1561,1561,1575,1583,1590,1597,1612,1612,1620,1620,1635,1643,1651,1659,1667,1675,1675,1683,1700,1708,1708,1726,1734,1743,1752,1752,1752,1770,1779,1779,1788,1798,1807,1817,1826,1836,1836,1846,1856,1856,1876,1897,1897,1907,1918,1929,1939,1950,1961,1973,1973,1984,2007,2019,2019,2019,2019,2019,2019,2031,2031,2031,580,573,571,571,560,560,560,547,512,512,508,504,500,500,497,497
0,423,423,423,422,422,422,421,420,420,420,420,421,422,423,424,425,428,430,431,434,437,441,444,448,468,469,470,474,478,0,0,0,0,0,0,0,0,0,0,0,0,0,0,0,0,3115,3115,3115,3115,3143,3172,3172,3232,3232,3232,3232,3263,3263,3294,3263,3263,3263,3294,3294,3358,3358,3358,3358,3358,3358,3391,3358,3358,3391,3391,1575,1568,1568,1554,1554,1554,1554,1561,1568,1575,1590,1597,1605,1605,1612,1620,1628,1635,1643,1659,1667,1667,1675,1683,1692,1700,1708,1717,1734,1734,1743,1752,1752,1770,1770,1770,1779,1788,1798,1807,1817,1817,1836,1846,1846,1856,1876,1876,1876,1886,1897,1907,1929,1939,1950,1961,1973,1973,1984,1996,2019,2007,2007,2019,2019,600,593,592,574,568,564,561,560,547,547,547,514,512,508,505,501,500,497,497
0,425,425,424,424,424,424,424,423,423,423,423,423,423,425,426,428,430,431,435,437,441,443,445,448,469,469,471,476,0,0,0,0,0,0,0,0,0,0,0,0,0,0,0,0,3115,3115,3115,3115,3115,3143,3143,3172,3202,3202,3232,3232,3232,3263,3263,3263,3263,3263,3294,3294,3326,3358,3358,3358,3358,3358,3358,3358,3358,3358,3391,3391,1568,1561,1547,1547,1547,1547,1554,1561,1575,1583,1590,1590,1605,1605,1605,1612,1620,1635,1643,1651,1659,1675,1675,1683,1692,1700,1700,1708,1708,1734,1743,1752,1752,1761,1770,1779,1788,1788,1798,1807,1807,1817,1826,1846,1846,1846,1856,1876,1886,1897,1907,1907,1907,1929,1939,1961,1973,1973,1996,2019,1996,1996,603,602,592,591,575,570,565,562,554,547,547,547,523,514,512,509,506,503,501,498,498
0,427,427,427,426,426,426,426,427,425,425,425,425,427,428,429,430,431,434,436,438,442,444,446,449,470,470,484,0,0,0,0,0,0,0,0,0,0,0,0,0,0,0,0,3115,3115,3115,3115,3115,3143,3143,3143,3143,3172,3172,3202,3202,3202,3232,3232,3263,3263,3263,3294,3326,3326,3326,3326,3358,3326,3294,3294,3294,3358,3358,3391,3391,1561,1561,1540,1533,1533,1540,1547,1561,1561,1575,1583,1583,1590,1597,1605,1612,1612,1628,1635,1643,1651,1659,1667,1675,1692,1700,1700,1700,1700,1726,1734,1743,1743,1752,1761,1770,1779,1779,1788,1798,1807,1817,1826,1836,1846,1846,1846,1876,1886,1886,1886,1886,1886,1918,565,565,1973,551,551,605,604,604,602,588,587,577,573,568,564,557,550,547,537,537,523,518,514,510,507,504,502,498,498
0,430,429,427,427,428,428,428,428,429,429,429,429,429,431,432,433,434,436,437,441,443,446,448,474,474,474,484,0,0,0,0,0,0,0,0,0,0,0,0,0,0,0,3033,3033,3060,3060,3060,3115,3115,3115,3143,3143,3143,3143,3172,3172,3172,3172,3232,3232,3263,3263,3263,3263,3294,3294,3326,3358,3326,3294,3294,3294,3358,3391,3391,3391,1554,1554,1533,1527,1527,1527,1540,1554,1561,1568,1575,1583,1583,1597,1605,1612,1612,1628,1635,1643,1643,1651,1659,1675,1683,1700,1700,1700,1700,1717,1726,1743,1743,1743,1752,1770,1779,1779,1788,1798,1807,1807,1817,1817,1826,1846,1846,1856,1876,1876,1876,1886,568,565,565,561,554,551,548,547,542,538,536,536,540,539,539,567,561,556,550,548,537,536,520,520,515,512,509,506,503,500,500
0,432,432,431,430,430,430,430,431,431,431,432,433,435,435,435,436,437,440,441,443,445,448,449,474,474,482,484,0,0,0,0,0,0,0,0,0,0,0,0,0,0,3033,3033,3033,3060,3060,3060,3115,3115,3115,3143,3143,3143,3143,3172,3172,3172,3172,3202,3202,3232,3263,3232,3232,3263,3294,3294,3294,3294,3326,3326,3326,3358,3326,3326,3358,1554,1547,1527,1527,1527,1527,1540,1547,1554,1568,1568,1575,1583,1597,1605,1605,1605,1605,1628,1643,1643,1643,1651,1659,1675,1692,1700,1700,1708,1708,1717,1726,1734,1743,1743,1761,1770,1770,1779,1798,1798,1807,1807,1817,1817,1836,1846,1856,1856,572,572,565,560,550,549,549,538,536,531,531,541,538,536,534,534,539,539,539,554,554,550,543,537,536,516,515,512,512,512,509,506,501,501
0,436,435,433,433,433,432,432,434,434,434,436,437,437,438,439,439,442,443,446,446,448,449,475,475,477,482,0,0,0,0,0,0,0,0,0,0,0,0,0,0,3006,3006,3033,3033,3060,3060,3087,3087,3115,3115,3115,3115,3143,3143,3143,3143,3172,3172,3202,3202,3232,3263,3232,3232,3263,3294,3263,3263,3294,3294,3294,3294,3294,3294,3294,3326,1554,1547,1520,1520,1520,1527,1540,1540,1547,1554,1561,1568,1575,1583,1590,1597,1597,1605,1620,1635,1643,1643,1643,1651,1667,1683,1700,1700,1700,1708,1708,1708,1734,1734,1734,1743,1761,1770,1779,1779,1788,1798,1807,1817,1817,1826,1846,1846,583,572,565,562,554,550,548,537,536,533,529,527,527,521,521,532,527,527,530,530,549,541,540,540,540,539,511,510,509,509,509,510,507,503,503
0,439,437,437,437,436,436,436,436,436,437,438,439,440,441,441,445,452,452,452,477,477,476,476,477,479,0,0,0,0,0,0,0,0,0,0,0,0,0,0,2980,2980,3006,3033,3033,3033,3060,3087,3087,3115,3115,3115,3115,3115,3115,3143,3143,3172,3202,3202,3202,3232,3263,3263,3232,3232,3263,3263,3263,3263,3263,3294,3294,3294,3294,3294,3294,1547,1540,1520,1513,1513,1520,1527,1533,1540,1554,1554,1568,1575,1583,1583,1590,1597,1605,1612,1620,1628,1635,1635,1643,1659,1667,1675,1675,1683,1700,1708,1708,1717,1734,1734,1743,1752,1761,1761,1770,1779,1788,1807,1807,1817,1817,1826,584,582,574,565,554,551,540,537,535,532,528,527,525,522,520,518,515,514,514,528,527,527,541,538,538,539,539,509,508,505,503,503,510,509,505,505
0,443,441,440,440,439,439,439,440,440,440,440,441,443,443,446,449,452,454,454,477,477,477,477,0,0,0,0,0,0,0,0,0,0,0,0,0,0,2930,2930,2955,2980,3006,3033,3033,3033,3060,3060,3060,3060,3087,3087,3115,3115,3115,3115,3143,3143,3143,3172,3202,3202,3232,3232,3232,3232,3232,3263,3263,3232,3232,3263,3294,3294,3294,3294,3294,1540,1540,1513,1507,1507,1520,1527,1533,1533,1547,1554,1561,1568,1575,1583,1590,1597,1597,1605,1605,1612,1620,1628,1643,1659,1659,1667,1675,1683,1700,1708,1708,1708,1726,1734,1734,1743,1752,1752,1752,1770,1788,1798,1798,1807,1817,1817,583,564,561,553,549,536,536,527,527,524,523,518,518,517,517,516,514,513,512,511,511,519,518,518,528,528,528,507,505,503,500,496,494,494,506,506
0,446,446,445,443,443,443,443,444,444,444,445,446,447,448,451,452,456,458,458,589,0,0,0,0,0,0,0,0,0,0,0,0,0,2881,2881,2905,2930,2930,2930,2955,2980,2980,2980,3006,3033,3033,3033,3033,3033,3033,3033,3087,3115,3115,3115,3143,3143,3143,3172,3172,3172,3202,3202,3202,3232,3232,3232,3263,3232,3232,3263,3263,3294,3294,3326,3326,1527,1527,1507,1507,1507,1513,1527,1527,1533,1533,1540,1547,1554,1561,1575,1583,1590,1590,1597,1605,1612,1620,1628,1635,1651,1659,1667,1675,1683,1683,1692,1708,1708,1717,1726,1726,1734,1743,1752,1752,1761,1779,1779,1779,1788,1798,1817,583,561,555,544,536,535,528,525,523,517,515,512,510,509,509,508,508,511,510,509,508,508,517,515,515,527,527,507,503,500,496,494,493,493,505,505
0,452,449,448,446,446,447,447,448,448,448,448,449,449,455,457,457,588,588,589,589,589,589,0,0,0,0,0,0,0,0,0,0,0,2881,2881,2905,2930,2955,2930,2930,2955,2955,2955,2980,3006,3006,3006,3033,3033,3033,3033,3087,3115,3115,3143,3143,3143,3143,3143,3172,3172,3202,3172,3172,3232,3232,3232,3232,3232,3263,3263,3263,3294,3263,3263,3263,1527,1520,1507,1500,1500,1500,1513,1520,1527,1527,1533,1540,1547,1561,1568,1575,1583,1583,1590,1605,1612,1628,1628,1635,1643,1651,1659,1667,1675,1675,1675,1692,1708,1708,1717,1717,1726,1734,1743,1743,1752,1770,1779,1779,1788,1788,1817,565,555,545,542,533,529,524,519,515,512,510,507,505,502,500,499,499,499,501,506,506,506,505,505,513,527,527,527,501,498,493,492,487,486,486,505
0,457,456,456,456,452,452,451,451,452,453,454,458,458,458,458,581,581,581,586,588,589,0,0,0,0,0,0,0,0,0,0,0,0,2833,2833,2905,2930,2930,2930,2930,2930,2930,2955,2980,3006,3006,3006,3033,3033,3033,3033,3060,3060,3087,3115,3115,3115,3115,3115,3115,3172,3143,3143,3143,3202,3232,3202,3172,3172,3232,3232,3263,3263,3263,3263,3232,1520,1513,1493,1487,1487,1493,1500,1513,1520,1527,1527,1540,1547,1554,1554,1568,1568,1575,1583,1597,1612,1620,1628,1635,1635,1643,1651,1667,1667,1667,1667,1683,1700,1708,1717,1708,1708,1726,1734,1743,1743,1752,1770,1779,1779,1788,567,565,553,541,540,528,524,519,514,510,508,505,502,499,498,496,495,493,493,490,490,490,504,504,504,510,505,505,505,501,495,493,490,486,484,484,0
0,461,461,461,485,484,484,484,493,460,460,460,460,461,463,463,576,576,578,582,586,588,0,0,0,0,0,0,0,0,0,0,0,0,2833,2833,2881,2905,2905,2930,2930,2930,2930,2955,2980,3006,3006,3006,3033,3033,3033,3033,3060,3060,3060,3115,3115,3115,3115,3115,3115,3143,3143,3143,3143,3172,3202,3172,3172,3172,3232,3232,3232,3232,3263,3263,3232,1507,1500,1487,1487,1487,1493,1500,1500,1513,1520,1527,1540,1540,1540,1547,1561,1561,1561,1575,1597,1605,1605,1612,1620,1628,1635,1643,1659,1667,1667,1667,1683,1692,1700,1708,1708,1708,1726,1734,1734,1743,1752,1761,1770,1779,568,564,555,541,540,527,524,520,514,511,508,504,500,498,496,494,492,491,490,488,488,488,487,487,503,502,502,503,502,502,502,495,492,489,485,482,477,477
0,482,482,483,485,484,484,484,493,495,515,515,515,515,518,518,566,566,575,579,581,586,587,0,0,0,0,0,0,0,0,0,0,0,2881,2881,2881,2881,2905,2930,2930,2930,2930,2955,2980,2980,2980,2980,3006,3006,3033,3033,3060,3060,3060,3060,3115,3115,3115,3115,3115,3143,3143,3143,3143,3143,3172,3172,3172,3172,3232,3232,3232,3232,3263,3263,1500,1500,1500,1487,1487,1487,1493,1493,1493,1507,1520,1527,1527,1527,1527,1540,1554,1561,1561,1575,1583,1597,1597,1605,1612,1620,1620,1635,1651,1651,1659,1675,1675,1675,1692,1700,1700,1708,1717,1726,1734,1743,1752,1752,1761,1770,567,557,554,541,529,526,522,517,511,508,503,498,497,491,491,490,489,488,483,483,484,486,485,484,484,484,500,500,498,498,498,495,490,488,484,481,477,477
0,482,482,483,485,484,484,487,493,495,500,504,515,515,518,555,557,565,570,576,578,582,583,584,586,588,592,0,0,0,0,0,0,0,0,2905,2881,2881,2905,2930,2930,2930,2955,2955,2930,2930,2955,2980,2980,2980,3006,3006,3033,3060,3060,3060,3060,3087,3115,3115,3115,3087,3087,3087,3115,3143,3143,3143,3172,3202,3232,3202,3202,3232,3263,3263,1500,1500,1500,1481,1481,1481,1481,1487,1493,1500,1513,1513,1520,1527,1527,1540,1547,1554,1568,1575,1583,1583,1597,1605,1612,1612,1620,1628,1643,1643,1643,1659,1667,1675,1692,1692,1692,1692,1700,1717,1717,1734,1743,1743,1752,575,565,557,543,541,527,523,519,512,507,503,501,495,493,488,486,483,482,480,479,478,454,454,485,484,484,484,499,499,496,493,493,493,490,487,482,480,476,476
0,484,484,484,486,486,486,487,493,495,499,504,514,516,518,552,555,564,567,572,575,578,580,580,582,586,590,595,587,587,588,0,0,0,0,0,0,0,0,2955,2930,2905,2905,2930,2930,2930,2955,2955,2955,2980,3006,3006,3006,3033,3033,3060,3060,3060,3060,3087,3115,3087,3060,3060,3087,3115,3143,3143,3143,3143,3202,3202,3202,3202,3232,3232,1507,1500,1487,1474,1468,1468,1468,1481,1493,1500,1507,1507,1513,1520,1533,1540,1540,1554,1561,1568,1575,1583,1590,1605,1612,1612,1620,1628,1635,1635,1643,1651,1659,1675,1675,1683,1683,1692,1700,1708,1708,1734,1734,1743,1743,575,565,553,540,538,526,522,517,508,506,500,498,493,490,486,485,463,463,479,478,452,452,451,447,446,444,444,444,499,496,493,493,493,485,485,482,478,476,476
0,486,486,488,488,489,490,492,493,496,499,507,514,519,546,547,555,561,565,568,572,575,576,577,578,581,587,592,587,587,588,0,0,0,0,0,0,0,0,0,2930,2905,2881,2881,2905,2930,2955,2955,2955,2955,2980,3006,3006,3033,3033,3033,3060,3060,3060,3087,3087,3087,3060,3060,3087,3115,3143,3143,3143,3143,3172,3172,3172,3172,3202,3202,3202,1487,1481,1474,1468,1468,1468,1474,1487,1493,1507,1507,1507,1520,1533,1533,1540,1540,1547,1554,1568,1583,1590,1590,1605,1605,1612,1628,1635,1635,1643,1643,1651,1667,1675,1675,1683,1700,1700,1708,1708,1726,1734,1743,1743,1752,560,552,540,532,525,519,515,507,504,481,479,472,468,466,465,461,459,456,452,451,450,449,446,446,444,442,440,440,438,437,437,437,437,485,482,478,476,476
0,489,489,490,490,490,492,494,495,500,505,509,514,540,541,545,553,558,562,565,568,571,573,573,573,576,584,591,588,588,588,0,0,0,0,0,0,0,0,0,0,2905,2881,2881,2905,2905,2930,2955,2955,2955,2955,2955,3006,3033,3033,3033,3060,3060,3060,3087,3087,3087,3087,3087,3087,3115,3143,3143,3143,3143,3143,3143,3143,3143,3202,3202,3202,1487,1481,1468,1462,1462,1462,1474,1474,1481,1493,1500,1500,1513,1527,1527,1533,1533,1547,1554,1561,1575,1575,1583,1590,1605,1605,1620,1628,1635,1635,1643,1643,1659,1667,1675,1675,1683,1700,1708,1708,1717,1726,1734,1743,1752,560,552,540,532,525,496,494,488,483,480,476,471,467,465,461,458,457,454,452,451,449,448,445,444,442,441,440,440,436,436,436,436,436,436,482,478,473,473
0,491,491,491,492,493,494,496,499,503,507,511,535,535,539,544,551,555,558,562,565,567,569,569,569,572,578,588,591,594,595,595,0,0,0,0,0,0,0,0,0,2905,0,2905,2857,2857,2905,2905,2930,2955,2930,2930,2955,3006,3033,3033,3033,3033,3033,3087,3060,3060,3060,3087,3060,3060,3087,3115,3143,3115,3115,3115,3143,3143,3143,3172,3202,1481,1481,1462,1456,1456,1462,1468,1468,1474,1487,1493,1493,1513,1520,1520,1520,1527,1540,1554,1554,1554,1561,1583,1590,1605,1605,1612,1620,1628,1635,1643,1643,1651,1659,1667,1675,1683,1700,1700,1700,1717,1726,1700,1700,1700,1734,515,515,512,503,496,494,486,483,478,474,470,466,463,460,458,457,454,452,449,449,447,445,444,442,440,435,434,434,433,433,434,434,435,435,435,473,473
0,493,493,493,493,494,496,498,502,506,511,515,530,532,536,543,549,553,555,559,563,565,565,565,565,569,574,582,584,587,591,591,593,596,600,600,0,0,0,0,0,0,0,0,2857,2833,2833,2857,2930,2930,2930,2930,2955,2980,3006,3006,3006,3033,3033,3060,3033,3033,3033,3087,3060,3060,3087,3115,3115,3115,3115,3115,3143,3115,3115,3143,1468,1468,1474,1449,1449,1449,1462,1462,1468,1474,1487,1487,1493,1500,1513,1513,1520,1527,1533,1547,1554,1554,1554,1575,1590,1597,1597,1605,1612,1612,1620,1635,1643,1651,1651,1659,1675,1675,1683,1692,1700,1708,1726,1700,1700,1734,1734,515,515,512,503,498,495,486,484,478,474,469,466,463,460,457,456,454,452,449,449,445,444,442,441,440,435,434,434,410,410,433,431,431,433,434,434,474
0,494,494,495,496,497,498,502,505,510,515,519,527,529,536,542,546,549,552,555,560,563,563,563,563,565,572,576,579,580,581,589,588,588,591,599,599,599,599,0,0,0,0,0,0,2833,2833,2857,2930,2881,2881,2930,2955,2980,3006,3006,3006,3006,3006,3033,3033,3033,3033,3033,3060,3087,3087,3115,3115,3115,3115,3115,3115,3115,3115,3143,1468,1468,1468,1449,1443,1443,1443,1449,1468,1474,1481,1481,1487,1493,1507,1507,1520,1527,1527,1533,1547,1554,1554,1561,1575,1583,1590,1605,1605,1612,1612,1635,1635,1643,1643,1659,1667,1667,1667,1675,1675,1700,1708,1708,1717,1734,1734,519,519,512,505,499,493,488,485,479,474,468,466,462,460,457,456,454,452,449,448,445,444,412,412,412,412,412,411,410,409,408,408,431,433,434,434,0
0,496,496,496,498,499,501,504,508,511,517,520,526,526,536,540,543,546,547,553,556,560,558,558,558,563,567,571,571,573,575,576,577,579,580,583,585,591,596,597,600,602,603,603,0,602,0,2930,2930,2881,2881,2955,2955,3006,3006,2980,2955,2955,2955,3033,3033,3033,3006,3006,3033,3033,3033,3087,3060,3060,3087,3115,3115,3115,3143,3143,3143,1468,1468,1449,1443,1443,1443,1449,1462,1468,1468,1474,1481,1493,1500,1500,1507,1527,1527,1527,1533,1547,1554,1561,1568,1575,1590,1597,1605,1605,1612,1620,1620,1628,1635,1651,1667,1667,1667,1675,1675,1692,1700,1708,1708,1717,1717,540,517,513,509,502,493,490,486,478,474,468,465,462,460,458,456,454,451,449,448,445,445,409,409,409,409,408,408,407,407,407,407,406,406,406,0,0
0,496,496,497,498,500,503,506,510,512,519,522,522,526,536,538,541,541,543,549,554,556,554,554,555,561,565,566,566,567,569,572,573,575,578,580,584,587,592,593,595,597,601,602,0,0,0,0,0,0,0,0,0,0,3006,2980,2930,2905,2905,3006,3033,3006,3006,3006,3033,3033,3033,3060,3033,3033,3060,3087,3087,3087,3087,3087,3115,1468,1468,1449,1443,1443,1443,1443,1456,1456,1462,1468,1481,1493,1493,1500,1500,1520,1520,1520,1527,1540,1554,1554,1568,1575,1583,1590,1590,1597,1612,1612,1612,1620,1635,1635,1643,1659,1667,1675,1675,1692,1692,1708,1708,1708,1708,540,517,517,512,506,499,492,487,477,472,468,465,463,460,423,421,415,411,411,408,407,407,408,407,407,406,406,406,406,405,405,405,406,406,406,0,0
0,497,497,498,499,502,504,507,512,515,519,519,520,530,533,536,538,539,541,546,552,551,551,551,552,556,561,563,563,564,564,565,569,571,574,577,581,584,586,586,588,592,594,596,600,0,0,0,0,0,0,0,0,0,0,2980,2930,2905,2905,2980,2980,2980,2980,2980,3006,3006,3006,3006,3033,3033,3060,3087,3087,3087,3087,3087,3087,1456,1456,1443,1437,1437,1443,1443,1449,1449,1456,1468,1474,1481,1487,1493,1493,1507,1513,1513,1520,1533,1540,1554,1561,1568,1583,1583,1583,1590,1605,1612,1612,1620,1628,1635,1635,1643,1659,1659,1667,1675,1683,1700,1700,1700,1700,546,537,526,516,503,498,485,485,476,471,468,465,463,424,423,420,406,406,407,406,406,405,405,405,405,405,405,405,404,404,405,405,406,406,406,0,0
0,497,497,499,500,503,506,509,514,519,519,519,520,529,531,533,535,536,539,545,549,547,547,547,549,554,558,558,557,557,558,561,566,568,570,573,576,577,577,579,584,588,589,591,592,592,0,0,0,0,0,0,0,0,0,0,0,2980,2857,2857,2905,2955,2980,2980,3006,3006,3006,3006,3033,3033,3033,3060,3060,3087,3115,3115,3087,1443,1443,1443,1437,1437,1437,1443,1443,1449,1456,1468,1468,1474,1474,1481,1493,1507,1513,1513,1520,1527,1540,1547,1554,1561,1575,1575,1583,1590,1597,1597,1605,1605,1620,1628,1635,1643,1659,1659,1659,1667,1683,1692,1692,1692,1692,537,537,527,517,503,498,485,485,475,471,468,430,430,424,422,407,406,405,405,404,404,404,404,404,404,404,404,404,404,404,405,405,0,0,0,0,0
0,498,498,500,502,505,507,511,518,520,519,519,523,527,530,531,531,532,536,543,546,544,544,544,547,550,555,555,555,555,555,557,559,564,565,568,570,571,571,573,580,582,581,581,583,602,602,603,0,0,0,0,0,0,0,0,0,0,2857,2857,2905,2930,2980,3006,3006,3006,3006,3006,3006,3006,3033,3060,3060,3087,3087,3115,3087,1431,1431,1431,1425,1425,1431,1437,1437,1443,1449,1456,1462,1468,1474,1474,1493,1500,1507,1513,1520,1520,1527,1540,1547,1554,1561,1575,1583,1583,1583,1590,1605,1605,1612,1628,1635,1643,1643,1651,1651,1659,1667,1692,1692,1692,1692,547,547,529,524,503,489,485,480,475,454,454,430,424,423,407,406,405,405,404,404,404,404,404,404,404,404,404,404,404,404,0,0,0,0,0,0,0
0,498,498,500,504,507,510,515,516,520,523,523,523,525,527,527,527,530,536,541,542,540,540,541,545,548,551,552,552,552,552,553,555,558,561,565,565,565,565,571,575,577,578,578,580,585,593,600,602,0,0,0,0,0,0,0,0,0,0,2905,2905,2930,2955,2980,2980,2980,3006,3006,3006,3006,3033,3033,3033,3060,3060,3060,3087,1431,1431,1425,1425,1425,1425,1425,1431,1437,1443,1449,1456,1468,1468,1474,1481,1493,1500,1500,1507,1513,1520,1527,1533,1547,1554,1561,1568,1575,1583,1583,1597,1605,1612,1628,1635,1635,1635,1643,1643,1659,1651,1651,1675,1683,1683,1700,1700,531,531,502,487,484,434,434,454,429,426,424,423,406,404,404,403,403,404,404,404,404,404,404,405,405,378,0,0,0,0,0,0,0,0,0
0,498,498,502,505,508,511,514,515,520,520,520,523,523,523,523,524,527,535,538,539,536,536,537,541,546,548,549,548,547,547,548,551,554,557,558,559,561,562,565,572,569,569,570,574,583,589,597,597,597,0,0,0,0,0,0,0,0,0,0,0,2955,2930,2930,2955,2955,2955,2980,3006,3006,3006,3033,3033,3033,3033,3033,3060,1431,1425,1420,1414,1414,1420,1420,1425,1437,1437,1449,1456,1456,1456,1462,1468,1481,1493,1500,1507,1507,1520,1527,1533,1533,1547,1554,1561,1568,1575,1583,1590,1597,1605,1612,1620,1628,1635,1635,1643,1651,1651,1651,1659,1667,1675,1692,1692,1708,502,502,486,470,431,431,430,428,425,424,423,405,404,403,403,403,403,403,403,403,404,377,377,378,378,378,378,377,0,0,0,0,0,0
0,499,499,502,505,507,509,498,498,517,517,518,519,518,518,519,523,527,535,536,534,534,534,535,537,542,546,547,544,544,544,545,547,550,554,555,555,555,558,563,565,564,564,565,574,581,584,586,597,597,0,0,0,0,0,0,0,0,0,0,0,0,2930,2930,2930,2930,2955,2980,2980,2980,2980,3006,3006,3006,3006,3033,3033,1420,1420,1402,1402,1402,1408,1420,1425,1431,1431,1449,1449,1456,1456,1462,1468,1474,1487,1493,1507,1507,1513,1527,1527,1527,1547,1547,1554,1568,1568,1575,1583,1597,1605,1612,1612,1612,1628,1635,1635,1643,1659,1659,1659,1667,1675,1692,1692,1708,1708,488,479,470,431,431,429,427,424,423,405,404,403,403,403,403,403,403,403,403,404,377,377,378,378,377,377,0,0,0,0,0,0,0
0,499,499,502,505,491,491,494,496,512,513,515,518,515,515,516,519,527,531,534,531,531,531,532,536,540,543,541,540,540,540,541,543,546,547,547,552,553,556,560,559,557,557,560,565,579,582,584,585,592,595,0,0,0,0,0,0,0,0,0,0,0,3033,2930,2930,2930,2955,2980,2980,2980,2980,3006,3006,3006,3006,3006,3006,1414,1414,1402,1402,1402,1402,1414,1420,1420,1425,1437,1443,1456,1456,1462,1468,1474,1481,1487,1500,1500,1513,1520,1520,1520,1540,1547,1547,1554,1561,1568,1575,1590,1605,1605,1612,1612,1612,1628,1628,1635,1651,1651,1659,1667,1675,1692,1717,1726,1708,488,478,470,433,431,428,427,409,405,404,403,403,403,403,402,402,403,403,379,379,378,377,377,377,376,375,375,0,0,0,0,0,0
0,499,499,501,503,490,490,494,496,511,512,514,511,511,511,514,519,525,530,529,527,527,527,529,534,536,540,539,536,536,536,537,539,541,542,544,546,550,553,554,552,552,553,556,558,572,573,573,584,591,593,0,0,0,0,0,0,0,0,0,0,0,0,2930,2930,2930,2930,2955,2955,2980,2980,3006,3006,3006,3006,3006,3006,1414,1414,1402,1396,1396,1402,1402,1414,1420,1425,1437,1443,1443,1449,1456,1462,1468,1481,1487,1493,1500,1507,1513,1520,1520,1533,1533,1540,1547,1561,1561,1561,1575,1583,1597,1605,1605,1612,1620,1620,1628,1643,1643,1651,1659,1667,1675,1717,1726,493,490,478,476,431,429,428,426,405,405,404,402,402,402,402,401,401,379,378,378,378,377,377,376,376,375,375,375,0,0,0,0,0,0
0,480,480,482,486,488,490,495,496,509,510,509,507,507,509,512,519,523,527,526,525,525,525,527,531,534,536,534,532,532,532,533,536,536,539,541,544,547,550,547,547,547,550,555,558,567,567,567,584,588,592,0,0,0,0,0,0,0,0,0,0,0,0,2955,2930,2930,2930,2930,2930,2955,2980,3006,2980,2980,3033,3006,3006,1414,1414,1402,1396,1396,1396,1402,1408,1414,1420,1431,1437,1443,1443,1449,1456,1462,1474,1481,1487,1500,1500,1500,1507,1520,1527,1527,1540,1547,1554,1561,1561,1575,1575,1583,1590,1597,1605,1612,1620,1620,1628,1643,1643,1659,1659,1643,1605,1605,493,492,437,435,431,429,427,426,405,404,403,402,401,401,402,401,401,378,377,377,377,377,376,376,376,367,366,365,362,362,362,362,363,363
0,479,479,482,485,487,490,502,503,506,508,503,503,504,507,510,518,521,523,522,521,521,521,523,527,530,532,530,528,527,527,527,529,531,534,537,541,542,538,538,539,542,550,555,558,559,560,565,588,588,592,0,0,0,0,0,0,0,0,0,0,0,0,2905,2905,2905,2905,2930,2930,2930,2955,2955,2980,2980,2980,3006,3006,1420,1420,1402,1396,1396,1396,1396,1402,1408,1414,1420,1425,1431,1437,1449,1456,1456,1456,1468,1474,1487,1487,1487,1500,1520,1520,1520,1527,1533,1547,1554,1554,1568,1568,1575,1575,1590,1605,1605,1612,1620,1620,1628,1635,1643,1651,1635,1605,1605,496,439,437,433,430,428,410,407,404,403,402,401,400,399,399,376,376,376,376,376,376,376,376,365,365,365,365,361,361,361,361,361,361,363
0,479,479,482,485,487,497,498,500,503,499,499,500,502,507,510,515,519,520,519,519,519,519,521,524,527,528,527,526,524,524,525,526,528,531,535,538,536,536,536,536,542,550,554,554,554,556,560,591,591,0,0,0,0,0,0,0,0,0,0,0,0,0,2833,2833,2905,2905,2905,2905,2930,2930,2930,2930,2930,2930,2980,1414,1408,1408,1396,1380,1380,1385,1396,1396,1408,1414,1414,1420,1425,1437,1443,1443,1449,1456,1462,1468,1474,1481,1487,1493,1513,1513,1513,1520,1527,1547,1547,1547,1554,1568,1568,1575,1590,1597,1605,1612,1620,1620,1620,1635,1635,1643,1635,1605,1605,441,438,434,432,430,428,409,406,404,403,401,400,399,399,376,375,375,375,375,376,376,366,365,365,365,363,361,361,361,360,360,360,360,363
0,480,480,489,491,493,493,495,499,500,497,497,498,500,506,510,514,516,517,515,515,515,516,518,520,523,526,525,522,521,521,522,523,526,529,531,533,531,531,531,532,544,544,544,546,550,553,555,585,585,0,0,0,0,0,0,0,0,0,0,0,0,0,2833,2833,2905,2881,2881,2905,2930,2930,2905,2905,2930,2930,2955,1414,1402,1402,1391,1380,1380,1380,1385,1391,1402,1402,1402,1414,1425,1437,1437,1437,1443,1449,1449,1462,1474,1474,1481,1493,1493,1500,1507,1513,1520,1533,1540,1547,1547,1554,1561,1568,1575,1583,1597,1605,1612,1612,1612,1628,1635,1643,1643,1651,1651,441,437,434,432,430,427,407,405,404,402,401,399,399,399,375,374,374,374,374,375,366,365,365,365,363,361,360,360,359,358,348,348,347,347
0,486,486,488,489,489,491,493,498,493,493,493,495,498,503,509,512,514,515,513,513,513,514,515,518,520,523,520,517,517,517,519,520,523,527,530,529,527,527,528,531,540,541,541,543,547,550,554,572,583,585,0,0,0,0,0,0,0,0,0,0,0,0,2881,2833,2833,2881,2881,2905,2930,2930,2905,2905,2930,2930,2955,2930,1396,1396,1385,1380,1374,1374,1380,1391,1396,1402,1402,1408,1425,1425,1431,1437,1443,1443,1449,1456,1468,1468,1474,1487,1493,1500,1507,1513,1520,1527,1533,1540,1547,1554,1561,1561,1568,1575,1583,1597,1605,1605,1612,1620,1628,1628,1643,1643,1643,440,437,434,431,429,410,407,405,403,401,401,399,389,389,375,374,374,374,374,366,366,365,365,364,362,359,359,358,357,347,347,347,346,346
0,484,484,484,484,486,489,493,490,490,490,492,493,498,503,506,509,511,512,511,511,511,512,513,515,518,520,518,515,515,515,516,518,520,524,524,523,523,523,523,531,537,537,539,541,545,546,554,567,579,579,0,0,0,0,0,0,0,0,0,0,0,0,2881,2833,2833,2857,2881,2905,2905,2905,2905,2905,2930,2930,2930,2955,1391,1391,1380,1374,1374,1374,1380,1385,1391,1402,1402,1408,1408,1414,1420,1437,1443,1443,1449,1456,1462,1468,1474,1487,1493,1500,1507,1520,1520,1527,1527,1527,1533,1547,1547,1547,1561,1575,1575,1590,1597,1605,1612,1612,1612,1620,1635,1635,444,440,436,432,431,429,408,406,404,403,401,401,390,389,382,382,373,373,374,374,366,366,365,364,363,360,359,358,357,347,346,346,345,345,345
0,482,480,480,482,486,488,492,486,486,487,490,493,496,503,505,507,509,509,509,509,509,509,510,512,515,518,514,512,512,512,513,516,518,520,521,521,521,522,522,534,534,535,536,538,541,545,561,565,570,577,0,0,0,0,0,0,0,0,0,0,0,0,0,2833,2833,2857,2881,2881,2881,2905,2930,2930,2930,2930,2930,1391,1391,1391,1380,1369,1369,1369,1374,1380,1385,1391,1396,1402,1402,1408,1420,1425,1425,1431,1443,1449,1449,1462,1468,1474,1487,1493,1507,1513,1513,1513,1520,1527,1533,1540,1547,1547,1547,1561,1568,1583,1583,1590,1597,1605,1612,1620,1628,445,444,440,436,431,430,411,408,406,404,403,400,390,389,382,382,374,373,373,374,366,366,366,365,363,362,360,358,357,346,346,345,344,344,343,343
0,476,476,478,481,486,488,483,483,484,485,488,493,496,500,503,505,506,507,507,507,507,507,507,509,512,514,510,509,509,509,511,513,516,518,517,517,518,519,522,530,530,532,532,535,536,545,557,561,567,576,0,0,0,0,0,0,0,0,0,0,0,0,0,2905,2833,2833,2881,2881,2881,2905,2905,2930,2930,2930,2930,1385,1385,1385,1380,1363,1363,1363,1363,1374,1374,1380,1396,1402,1402,1408,1420,1420,1420,1425,1431,1443,1443,1456,1468,1474,1481,1481,1487,1500,1500,1507,1513,1520,1527,1540,1540,1540,1547,1554,1561,1575,1575,1575,1590,1590,1605,1612,1620,445,442,438,435,430,430,410,408,406,405,403,390,388,388,381,380,373,373,372,367,366,366,366,364,363,361,359,358,349,346,345,344,342,342,342,342
0,474,474,477,480,486,488,480,480,482,484,487,493,496,498,500,502,503,504,504,504,505,505,505,507,510,512,507,506,506,507,509,511,512,514,514,514,515,517,522,526,527,529,530,532,536,549,554,557,563,566,0,0,0,0,0,0,0,0,0,0,0,0,0,2810,2810,2833,2857,2881,2881,2881,2905,2930,2930,2930,2930,1385,1380,1380,1369,1358,1358,1358,1358,1369,1374,1380,1391,1396,1402,1408,1414,1420,1420,1420,1431,1437,1443,1449,1462,1462,1474,1474,1481,1493,1493,1500,1500,1507,1513,1533,1533,1533,1547,1554,1554,1568,1575,1575,1583,1583,1597,1605,1605,445,442,436,434,430,412,410,408,406,405,403,388,388,382,380,379,373,373,368,367,366,366,365,363,362,360,358,357,349,344,343,343,342,342,342,342
0,474,474,477,480,485,478,477,477,478,484,487,491,494,496,498,500,501,502,503,503,503,503,504,505,508,509,504,503,503,504,507,508,510,511,511,511,512,517,522,523,524,527,530,532,541,547,549,553,558,564,0,0,0,0,0,0,0,0,0,0,0,0,0,2810,2787,2787,2833,2881,2881,2881,2881,2905,2930,2905,2905,2930,1380,1380,1369,1353,1353,1353,1358,1363,1374,1380,1380,1385,1396,1396,1402,1414,1420,1420,1431,1431,1443,1449,1449,1456,1468,1474,1474,1481,1487,1493,1500,1507,1513,1520,1527,1527,1540,1547,1554,1554,1561,1568,1583,1583,1590,1597,447,445,442,435,433,430,412,409,408,406,404,404,388,388,382,380,376,373,373,367,366,366,366,364,363,361,359,358,357,357,344,343,342,342,342,342,0
0,474,474,477,481,477,475,475,476,477,482,486,490,493,495,495,497,498,499,500,500,500,500,502,504,506,507,501,501,501,502,504,505,506,508,509,509,512,518,519,520,521,524,530,535,539,541,544,548,558,564,0,0,0,0,0,0,0,0,0,0,0,0,0,0,2765,2765,2810,2857,2857,2881,2881,2905,2905,2905,2905,2930,1380,1380,1369,1353,1347,1347,1358,1358,1363,1374,1380,1380,1391,1391,1396,1408,1420,1420,1425,1425,1431,1443,1443,1456,1462,1468,1474,1474,1481,1487,1493,1507,1513,1513,1520,1527,1533,1540,1547,1554,1554,1561,1575,1583,1583,1583,447,445,441,434,431,429,411,409,407,405,404,389,388,384,382,377,376,372,367,367,366,366,365,364,363,361,359,358,358,0,344,342,342,342,342,0,0
0,474,474,478,480,472,472,472,474,477,481,485,488,490,493,493,493,495,496,497,498,498,498,500,502,504,503,499,499,499,499,501,503,504,505,506,508,512,516,517,517,520,524,529,532,536,538,541,547,560,564,567,0,0,0,0,0,0,0,0,0,0,0,0,0,2765,2765,2810,2833,2833,2857,2881,2881,2905,2905,2905,2930,1369,1369,1369,1353,1347,1347,1353,1353,1358,1369,1374,1380,1385,1385,1391,1396,1408,1414,1420,1425,1425,1431,1443,1456,1456,1462,1468,1468,1474,1481,1493,1493,1500,1507,1513,1520,1527,1533,1540,1540,1547,1554,1561,1575,1575,1583,1597,445,439,434,431,429,411,408,406,405,404,388,387,383,380,377,376,372,367,366,366,366,365,364,363,362,361,361,0,0,0,342,342,342,0,0,0
0,474,474,476,468,468,469,471,472,477,481,484,488,488,490,490,491,493,494,495,496,496,496,498,501,502,498,496,496,496,498,499,500,502,503,503,506,512,512,513,515,519,523,525,527,530,536,541,547,554,561,565,0,0,0,0,0,0,0,0,0,0,0,0,0,2810,2810,2810,2810,2810,2833,2857,2881,2905,2881,2881,2905,1363,1363,1369,1347,1337,1337,1347,1353,1358,1369,1369,1374,1380,1385,1391,1391,1391,1402,1414,1420,1420,1425,1443,1449,1456,1462,1462,1462,1468,1481,1487,1487,1493,1500,1507,1513,1520,1520,1527,1527,1540,1554,1554,1561,1568,1575,1597,445,437,434,430,429,410,406,405,404,403,387,387,382,380,378,375,371,368,366,366,366,365,364,363,363,363,0,0,0,0,0,0,0,0,0,0
0,473,473,465,465,466,468,470,472,477,480,483,486,486,488,488,488,489,490,493,494,494,495,496,498,500,494,493,493,494,495,496,498,500,500,501,504,509,509,511,513,517,519,523,526,529,536,541,546,552,561,565,0,0,0,0,0,0,0,0,0,0,0,0,0,2833,2833,2810,2810,2810,2833,2833,2881,2905,2881,2881,1363,1358,1358,1363,1342,1337,1337,1347,1353,1358,1358,1363,1374,1374,1380,1385,1385,1385,1402,1414,1420,1420,1420,1425,1437,1449,1456,1456,1456,1462,1474,1481,1487,1493,1493,1500,1507,1520,1520,1520,1527,1533,1547,1547,1554,1561,1568,1568,442,437,434,430,429,406,405,404,402,388,387,386,382,380,377,374,371,368,367,366,365,364,363,363,362,362,0,0,0,0,0,0,0,0,0,0
0,471,471,464,464,465,466,468,471,476,479,482,484,484,485,486,486,486,489,490,492,493,493,495,498,498,491,490,490,493,493,494,495,497,498,500,504,506,507,509,511,516,519,523,526,529,534,538,542,547,553,565,0,0,0,0,0,0,0,0,0,0,0,0,0,2833,2810,2810,2833,2833,2833,2833,2857,2857,2857,2857,1358,1358,1358,1342,1337,1337,1337,1342,1347,1347,1353,1358,1369,1369,1380,1380,1380,1385,1396,1408,1408,1408,1414,1420,1431,1443,1443,1449,1456,1456,1468,1474,1481,1487,1493,1493,1493,1507,1520,1520,1527,1533,1547,1547,1554,1561,1568,1568,441,437,434,431,429,404,403,401,401,388,387,386,382,380,375,374,371,369,367,367,365,363,363,363,362,362,0,0,0,0,0,0,0,0,0,0
0,469,460,460,461,463,464,466,470,475,478,480,481,482,482,483,484,485,486,488,490,490,491,493,495,496,489,488,488,489,490,491,493,495,497,500,503,504,505,508,511,516,519,523,526,528,531,536,540,544,551,568,0,0,0,0,0,0,0,0,0,0,0,0,0,0,2810,2810,2833,2810,2810,2833,2833,2833,2833,2857,1353,1353,1347,1332,1327,1327,1327,1337,1337,1337,1347,1358,1363,1369,1374,1374,1374,1374,1385,1396,1402,1408,1414,1420,1425,1431,1437,1443,1449,1456,1468,1474,1481,1487,1487,1493,1493,1507,1507,1520,1527,1527,1540,1547,738,738,738,738,438,437,435,432,430,404,400,400,389,388,387,386,383,381,375,374,372,370,367,367,365,363,363,363,363,0,0,0,0,0,0,0,0,0,0,0
0,458,458,458,459,461,463,466,470,474,476,478,479,480,480,481,482,482,484,486,488,489,490,493,493,494,486,486,486,487,488,489,492,493,495,499,500,502,505,508,511,516,519,521,522,525,529,532,537,543,550,560,562,0,0,0,0,0,0,0,0,0,0,0,0,0,2787,2787,2810,2810,2810,2833,2833,2833,2833,2857,1353,1347,1347,1332,1321,1321,1321,1327,1332,1337,1342,1353,1353,1363,1363,1369,1374,1374,1385,1391,1396,1402,1414,1414,1425,1425,1431,1443,1443,1449,1456,1468,1474,1481,1481,1493,1493,1500,1507,1520,1520,1520,739,735,728,724,724,724,438,437,436,434,431,399,399,390,389,388,387,386,384,382,375,374,374,372,370,367,365,364,363,363,0,0,0,0,0,0,0,0,0,0,0,0
0,456,456,456,457,460,462,466,469,472,474,475,476,477,478,479,480,480,482,484,486,488,489,491,493,493,484,484,484,484,486,488,490,493,495,498,500,501,505,509,513,514,515,518,519,523,527,532,536,543,548,560,562,0,0,0,0,0,0,0,0,0,0,0,0,0,2743,2743,2787,2810,2810,2833,2833,2833,2833,2810,2810,1342,1342,1327,1321,1321,1321,1321,1327,1332,1337,1347,1353,1353,1358,1363,1369,1380,1380,1380,1391,1402,1402,1414,1420,1420,1425,1437,1443,1449,1449,1456,1462,1468,1474,1487,1487,1493,1500,1500,1513,1520,727,724,722,716,715,715,440,438,437,435,434,399,399,390,389,388,387,387,385,383,375,375,375,375,371,367,365,364,363,363,0,0,0,0,0,0,0,0,0,0,0,0
0,454,454,454,456,458,461,466,468,471,472,474,474,475,476,476,478,478,480,482,485,486,488,490,489,484,482,482,482,483,484,486,488,491,495,498,499,501,506,509,510,511,513,515,519,523,525,531,536,540,547,550,564,568,0,0,0,0,0,0,0,0,0,0,0,0,2743,2743,2743,2787,2787,2787,2787,2810,2833,2810,1342,1342,1342,1327,1316,1316,1316,1321,1327,1327,1327,1332,1353,1353,1358,1287,1287,1292,1292,1292,1301,1311,1316,1327,1420,1420,1425,1425,1443,1443,1449,1449,1456,1462,1468,1474,1481,1493,1493,1500,1507,724,719,716,713,712,710,444,442,439,437,436,435,435,434,391,390,388,388,387,385,383,383,378,377,374,373,373,365,364,364,364,0,0,0,0,0,0,0,0,0,0,0,0
0,452,452,454,455,457,461,464,466,469,470,471,472,472,474,474,476,477,479,481,483,485,486,488,486,483,480,480,480,481,484,485,487,490,495,496,499,501,506,506,508,509,511,514,517,520,523,527,535,537,543,550,555,568,0,0,0,0,0,0,0,0,0,0,0,0,2721,2721,2743,2787,2787,2787,2787,2810,2810,2810,1337,1337,1337,1321,1311,1311,1311,1316,1321,1316,1316,1332,1353,1292,1292,1287,1287,1292,1292,1292,1301,1311,1316,1327,1396,1402,1420,1425,1437,1443,1443,1449,1449,1456,1468,1474,1481,1487,1487,1493,1500,719,716,713,707,705,703,444,442,440,437,435,435,434,433,413,410,388,388,388,386,384,383,382,379,374,374,373,365,364,364,364,0,0,0,0,0,0,0,0,0,0,0,0
0,450,450,452,454,457,461,463,465,467,468,469,470,470,472,472,474,475,477,480,482,484,485,486,484,478,478,478,478,480,482,484,487,490,495,496,500,503,503,504,507,508,510,513,515,519,522,527,531,536,542,549,555,0,0,0,0,0,0,0,0,0,0,0,0,0,2721,2721,2743,2787,2787,2787,2787,2787,2810,2810,1337,1332,1332,1316,1306,1306,1311,1311,1311,1316,1316,1332,1327,1292,1292,1292,1292,1292,1292,1292,1306,1316,1316,1327,1391,1402,1420,1420,1431,1437,1437,1443,1443,1456,1462,1468,1474,1481,1481,1487,1456,712,712,705,702,699,697,697,442,440,437,435,434,434,432,413,411,388,388,388,388,385,384,382,380,378,373,373,366,364,364,364,0,0,0,0,0,0,0,0,0,0,0,0
0,449,449,451,453,457,460,462,464,465,466,466,467,468,469,470,472,474,474,477,480,482,483,484,482,476,476,476,476,478,481,483,486,490,494,497,499,500,501,502,504,506,508,511,514,517,520,525,529,534,540,548,556,0,0,0,0,0,0,0,0,0,0,0,0,0,2721,2700,2700,2743,2765,2743,2743,2743,2787,2787,1337,1311,1311,1316,1297,1297,1311,1311,1311,1327,1327,1327,1327,1327,1342,1347,1292,1292,1292,1292,1380,1380,1337,1337,1391,1408,1420,1420,1420,1425,1431,1437,1443,1449,1456,1462,1468,1468,1481,1474,716,706,702,697,695,695,693,693,442,440,437,435,434,433,431,414,413,411,389,388,388,385,385,384,382,382,373,373,366,366,366,0,0,0,0,0,0,0,0,0,0,0,0,0
0,448,448,449,453,456,458,461,463,463,464,465,465,466,467,468,470,472,474,476,478,481,482,482,477,475,474,474,475,478,480,483,486,491,494,498,498,498,498,500,502,504,506,509,512,514,519,523,527,531,536,547,557,0,0,0,0,0,0,0,0,0,0,0,0,0,2721,2700,2700,2721,2743,2743,2743,2743,2765,2787,1316,1311,1311,1301,1297,1297,1301,1301,1301,1316,1321,1321,1332,1332,1337,1342,1347,1347,1358,1363,1374,1380,1380,1380,1396,1402,1408,1414,1420,1420,1431,1431,1437,1443,1449,1456,1456,1462,1474,1462,703,702,699,693,690,689,688,688,444,439,437,435,434,432,431,430,414,413,391,389,388,388,385,385,383,382,382,382,366,366,366,0,0,0,0,0,0,0,0,0,0,0,0,0
0,446,446,449,452,455,458,459,461,461,462,463,463,465,465,466,468,470,473,476,477,479,480,479,476,472,472,472,474,477,480,482,486,493,495,495,495,496,497,498,500,502,504,506,509,512,514,521,524,529,536,541,546,0,0,0,0,0,0,0,0,0,0,0,0,0,2743,2721,2721,2721,2743,2743,2743,2743,2765,2787,1316,1316,1316,1301,1292,1292,1297,1297,1297,1297,1311,1316,1316,1327,1327,1332,1347,1353,1353,1353,1369,1374,1374,1380,1385,1396,1402,1402,1408,1420,1425,1425,1431,1437,1443,1456,1456,1462,1468,706,699,699,688,686,686,685,684,682,444,439,437,435,433,431,431,430,429,414,391,390,390,390,387,385,385,385,385,385,367,367,367,0,0,0,0,0,0,0,0,0,0,0,0,0
0,446,446,449,451,454,456,458,459,461,461,461,461,462,464,465,467,468,472,474,476,477,478,477,472,471,471,471,472,477,480,482,493,493,493,493,493,494,495,496,498,500,501,505,507,510,513,519,522,527,536,541,546,0,0,0,0,0,0,0,0,0,0,0,0,0,2743,2721,2721,2721,2721,2743,2743,2743,2765,2765,1332,1321,1316,1306,1292,1292,1297,1297,1297,1297,1311,1316,1316,1321,1327,1332,1337,1332,1332,1337,1358,1363,1363,1374,1380,1396,1396,1396,1402,1408,1414,1414,1425,1425,1431,1449,1449,1456,699,697,693,686,684,681,679,679,678,677,444,439,437,435,433,431,430,429,429,428,428,390,388,388,389,386,385,385,385,386,386,0,0,0,0,0,0,0,0,0,0,0,0,0,0,0
0,445,445,448,451,453,455,456,457,457,458,459,460,461,462,463,465,468,470,473,474,476,476,474,470,469,469,470,472,478,481,482,490,490,490,490,490,492,493,493,495,498,500,503,506,509,512,516,522,526,531,542,546,0,0,0,0,0,0,0,0,0,0,0,0,0,2721,2700,2700,2700,2700,2721,2721,2743,2743,2743,1332,1316,1306,1306,1292,1292,1292,1297,1297,1301,1311,1311,1311,1316,1321,1332,1337,1332,1332,1337,1353,1358,1363,1363,1374,1385,1391,1396,1396,1402,1408,1408,1420,1425,1431,1437,1443,1449,697,696,686,682,678,675,675,674,674,673,673,673,438,435,433,431,430,429,429,427,427,426,388,388,390,389,386,386,385,385,385,0,0,0,0,0,0,0,0,0,0,0,0,0,0,0
0,444,444,446,449,451,453,454,455,456,457,458,458,459,460,463,463,466,468,472,473,474,474,471,468,467,467,468,472,478,480,482,488,488,488,488,489,490,490,492,493,496,499,501,504,507,511,515,520,524,530,542,0,0,0,0,0,0,0,0,0,0,0,0,0,0,2721,2679,2679,2700,2700,2721,2721,2721,2743,2743,2721,1306,1306,1306,1282,1282,1287,1292,1292,1292,1297,1301,1306,1316,1321,1332,1332,1337,1337,1337,1353,1358,1358,1358,1369,1385,1391,1396,1396,1402,1408,1408,1414,1425,1431,1437,1443,1443,696,688,681,677,674,671,670,669,669,669,669,669,670,670,434,431,430,429,429,427,427,426,392,392,391,391,388,385,385,385,385,385,0,0,0,0,0,0,0,0,0,0,0,0,0,0
0,443,443,446,448,449,451,453,454,454,455,455,457,458,458,461,463,465,467,468,470,473,473,469,466,466,466,466,472,478,480,486,486,486,486,486,487,488,489,490,493,495,497,499,502,506,508,514,519,523,529,542,0,0,0,0,0,0,0,0,0,0,0,0,0,0,2721,2658,2658,2700,2700,2700,2700,2721,2721,2721,2721,1297,1297,1301,1282,1282,1287,1282,1282,1292,1292,1297,1306,1311,1316,1321,1332,1332,1337,1337,1347,1353,1358,1358,1363,1374,1380,1385,1385,1396,1402,1408,1414,1420,1431,1431,1437,1437,685,681,675,671,669,668,666,665,664,664,664,665,665,665,665,665,427,427,427,426,426,426,425,425,392,392,392,385,385,385,385,385,0,0,0,0,0,0,0,0,0,0,0,0,0,0
0,442,442,445,447,448,449,451,452,453,454,454,455,456,457,459,461,464,466,467,469,471,471,468,466,465,465,465,476,477,480,484,484,484,484,484,485,486,487,488,490,493,495,497,499,503,506,511,516,520,527,0,0,0,0,0,0,0,0,0,0,0,0,0,0,0,0,2658,2658,2700,2700,2700,2700,2679,2679,2700,2721,1292,1292,1292,1277,1277,1277,1282,1282,1287,1287,1287,1297,1306,1311,1316,1321,1327,1337,1337,1337,1347,1353,1358,1358,1369,1374,1380,1385,1396,1396,1402,1408,1420,1420,1425,1431,1431,682,678,670,668,665,661,660,660,659,659,660,660,660,660,659,659,427,427,427,426,426,426,425,425,392,392,392,392,392,393,385,385,387,0,0,0,0,0,0,0,0,0,0,0,0,0
0,441,441,444,446,446,448,449,450,451,451,452,453,454,456,458,460,462,465,466,468,470,468,465,464,464,464,465,476,477,482,482,482,482,482,482,483,484,486,487,488,490,493,495,498,500,504,509,512,518,525,529,0,0,0,0,0,0,0,0,0,0,0,0,0,0,0,2658,2658,2679,2679,2679,2700,2679,2679,2679,2721,1292,1292,1292,1273,1273,1273,1277,1277,1277,1277,1282,1287,1301,1311,1311,1316,1316,1327,1327,1337,1347,1353,1353,1353,1363,1374,1380,1385,1391,1391,1396,1402,1414,1414,1420,1425,1425,681,666,664,662,660,659,659,656,655,655,655,655,655,655,566,564,426,426,424,424,529,426,425,425,425,392,392,392,392,392,386,386,387,387,0,0,0,0,0,0,0,0,0,0,0,0
0,441,441,442,444,445,446,448,449,449,450,451,452,453,455,457,459,461,463,465,467,468,466,463,463,463,463,463,476,477,480,480,479,479,479,480,481,482,484,485,487,489,490,493,496,499,502,506,510,515,520,525,0,0,0,0,0,0,0,0,0,0,0,0,0,0,0,2658,2658,2658,2658,2658,2700,2700,2679,2679,2700,1287,1287,1292,1263,1263,1268,1273,1273,1277,1277,1282,1287,1301,1306,1306,1306,1311,1321,1327,1337,1337,1337,1347,1347,1353,1363,1369,1380,1385,1385,1396,1396,1402,1408,1414,1414,1425,670,665,662,659,655,654,654,652,651,651,651,652,652,652,566,562,426,426,424,424,529,526,519,425,425,393,392,391,391,391,392,387,387,385,385,385,0,0,0,0,0,0,0,0,0,0
0,439,439,441,442,443,445,446,446,447,448,449,451,452,454,455,457,460,462,463,465,466,464,462,461,461,461,461,476,479,478,477,477,477,477,478,480,480,482,483,484,487,489,490,493,498,500,504,508,513,519,524,0,0,0,0,0,0,0,0,0,0,0,0,0,0,0,2658,2658,2638,2638,2658,2700,2700,2700,2700,2700,1287,1287,1282,1263,1263,1268,1273,1273,1277,1277,1287,1292,1297,1301,1306,1306,1311,1316,1327,1327,1327,1337,1342,1347,1353,1358,1358,1374,1380,1380,1391,1396,1396,1402,1402,1414,1420,670,660,656,655,650,649,646,646,647,646,646,646,646,646,566,562,551,548,424,424,531,526,520,518,425,425,392,391,391,390,390,387,387,385,385,385,0,0,0,0,0,0,0,0,0,0
0,438,438,440,440,442,443,445,445,446,446,447,449,450,452,454,457,459,461,462,463,464,463,461,461,461,461,461,476,477,475,475,475,475,476,476,477,478,480,481,482,484,486,489,491,494,498,503,507,511,517,524,0,0,0,0,0,0,0,0,0,0,0,0,0,0,0,2658,2638,2638,2638,2638,2658,2658,2679,2679,2700,1282,1282,1277,1263,1259,1259,1268,1268,1268,1273,1277,1282,1287,1292,1301,1306,1311,1311,1316,1316,1321,1332,1342,1342,1353,1353,1358,1369,1374,1374,1385,1391,1396,1402,1402,1414,1420,660,657,652,650,646,644,643,643,643,641,640,640,641,643,643,563,561,552,547,540,534,526,521,518,514,510,496,494,391,390,390,389,387,386,386,386,387,0,0,0,0,0,0,0,0,0
0,436,436,438,439,440,441,442,444,445,445,446,447,448,451,453,456,458,459,461,462,463,461,460,460,460,460,461,474,472,472,472,473,474,474,475,476,476,478,480,481,483,485,487,490,493,498,500,506,509,515,0,0,0,0,0,0,0,0,0,0,0,0,0,0,0,0,2658,2638,2638,2638,2638,2658,2658,2658,2658,2679,1282,1277,1277,1259,1254,1254,1259,1259,1259,1263,1268,1277,1287,1287,1287,1297,1301,1306,1311,1316,1316,1332,1337,1337,1347,1353,1358,1358,1369,1374,1380,1385,1385,1391,1396,1408,1414,659,655,646,645,640,639,639,639,638,638,638,638,638,638,638,565,564,558,553,541,534,527,522,518,514,509,496,493,491,390,390,388,388,387,386,386,387,0,0,0,0,0,0,0,0,0
0,434,434,436,437,439,440,441,442,442,444,445,446,447,449,452,454,457,458,460,461,461,460,458,458,458,459,461,471,471,471,471,472,473,473,474,474,476,476,478,480,482,484,486,489,493,495,499,503,508,514,524,527,0,0,0,0,0,0,0,0,0,0,0,0,0,0,2638,2638,2638,2638,2638,2658,2658,2658,2658,2658,1277,1277,1273,1254,1249,1249,1254,1259,1259,1259,1268,1277,1287,1287,1287,1292,1301,1301,1301,1306,1316,1321,1327,1337,1342,1353,1353,1353,1358,1363,1374,1380,1380,1385,1391,1396,660,655,646,643,640,637,636,634,634,634,633,633,633,634,634,634,634,570,565,555,541,535,527,522,519,513,509,496,493,488,476,390,388,388,387,387,387,388,0,0,0,0,0,0,0,0,0
0,434,434,435,435,437,438,439,440,441,442,442,444,446,447,451,453,455,457,459,460,460,457,457,457,457,458,461,469,469,470,471,472,472,472,472,474,474,476,476,478,480,482,484,488,490,493,497,498,506,513,523,526,0,0,0,0,0,0,0,0,0,0,0,0,0,0,2618,2618,2638,2638,2638,2658,2658,2658,2658,2658,1273,1273,1268,1245,1245,1249,1254,1259,1259,1259,1268,1277,1282,1287,1287,1292,1301,1301,1301,1306,1311,1316,1321,1332,1337,1342,1353,1353,1353,1358,1369,1380,1380,1385,1391,1396,660,650,645,640,639,634,632,631,631,630,630,630,630,631,631,631,631,574,572,546,541,534,527,522,519,512,509,493,492,486,482,477,472,470,468,465,463,461,457,457,0,0,0,0,0,0,0
0,432,432,433,434,435,436,437,439,440,440,441,443,445,446,449,452,454,456,457,458,457,457,457,457,457,458,468,468,469,470,470,470,470,471,471,472,472,474,476,477,478,481,484,485,488,490,495,498,503,506,520,526,0,0,0,0,0,0,0,0,0,0,0,0,0,0,2618,2618,2638,2638,2638,2638,2638,2658,2658,2658,1273,1273,1268,1245,1245,1245,1249,1254,1259,1263,1268,1273,1277,1287,1287,1292,1292,1292,1301,1306,1311,1316,1321,1327,1337,1337,1342,1347,1353,1353,1358,1374,1380,1380,1385,1396,1402,645,640,636,632,630,627,625,624,624,624,627,625,625,625,625,626,627,546,546,541,532,527,522,519,512,509,493,489,484,480,476,472,468,467,463,461,460,456,454,454,0,0,0,0,0,0
0,430,430,431,432,434,435,436,437,438,439,440,441,443,445,448,451,452,454,456,457,457,455,455,455,454,453,453,468,469,469,468,468,468,468,470,470,471,472,474,476,477,478,481,482,485,488,493,496,500,505,519,0,0,0,0,0,0,0,0,0,0,0,0,0,0,0,2618,2618,2638,2618,2618,2618,2638,2658,2658,2658,1263,1263,1259,1245,1240,1240,1240,1245,1254,1259,1263,1268,1273,1277,1277,1287,1292,1292,1297,1306,1311,1316,1316,1321,1332,1337,1337,1342,1347,1353,1358,1363,1374,1374,1374,1374,1385,641,638,632,630,626,625,623,622,621,621,622,621,621,621,622,622,624,546,546,545,530,528,521,519,512,508,493,488,484,478,474,471,468,465,461,460,458,455,453,424,424,424,0,0,0,0
0,429,429,430,431,432,434,435,435,436,438,439,440,442,444,446,449,451,452,454,455,455,454,454,455,454,453,453,469,468,467,466,466,466,466,468,468,469,470,472,474,475,476,478,481,482,488,491,495,499,505,516,0,0,0,0,0,0,0,0,0,0,0,0,0,0,0,0,2578,2578,2598,2618,2618,2638,2638,2638,2638,1259,1259,1254,1240,1236,1236,1240,1240,1254,1254,1259,1263,1268,1273,1277,1282,1292,1292,1297,1306,1306,1311,1316,1321,1327,1332,1337,1337,1342,1353,1353,1353,1363,1369,1374,1374,1380,636,633,630,626,622,618,618,618,617,617,616,616,616,616,617,617,617,618,618,546,530,528,521,517,512,508,488,488,480,478,473,470,466,464,460,460,457,454,424,424,424,424,0,0,0,0
0,428,428,429,429,431,431,434,434,435,436,438,439,441,442,445,448,449,452,453,454,454,454,454,454,455,455,468,467,466,466,465,465,465,466,466,466,468,469,470,472,473,474,476,480,482,486,490,493,498,504,515,518,0,0,0,0,0,0,0,0,0,0,0,0,0,0,2559,2559,2578,2598,2618,2618,2618,2618,2638,2638,1249,1249,1249,1236,1236,1236,1236,1236,1245,1254,1259,1259,1263,1273,1273,1277,1287,1292,1292,1292,1292,1297,1311,1321,1321,1327,1332,1337,1337,1347,1353,1353,1358,1363,1369,1380,1380,632,630,625,621,619,617,615,614,614,612,612,612,612,613,613,614,615,616,615,547,547,529,522,517,512,486,486,487,478,477,472,468,466,463,460,457,456,454,424,421,420,420,0,0,0,0
0,427,427,428,429,429,430,432,433,434,435,436,438,440,442,444,446,449,451,452,453,452,452,453,454,454,455,466,464,464,464,463,463,463,464,465,466,466,468,468,469,471,474,475,478,482,485,488,491,498,503,515,517,0,0,0,0,0,0,0,0,0,0,0,0,0,0,2522,2522,2559,2559,2578,2578,2578,2578,2618,2618,1249,1249,1245,1232,1232,1232,1232,1236,1240,1249,1249,1254,1259,1263,1268,1268,1273,1282,1287,1292,1292,1297,1306,1311,1316,1316,1327,1337,1337,1337,1347,1353,1358,1358,1358,1363,1380,630,625,621,617,616,612,610,609,609,609,609,609,609,609,611,611,611,611,611,611,613,528,523,517,513,486,486,482,478,476,469,467,465,462,460,457,455,452,424,419,418,417,416,416,415,415
0,425,425,425,427,428,429,430,432,433,434,435,437,438,440,442,445,447,449,451,451,451,452,452,452,454,454,465,463,463,463,463,463,463,463,464,464,464,465,466,468,469,472,474,477,480,484,487,490,496,502,517,517,0,0,0,0,0,0,0,0,0,0,0,0,0,0,2522,2522,2522,2559,2578,2559,2559,2578,2598,2559,1249,1249,1245,1227,1223,1223,1232,1236,1240,1245,1249,1254,1259,1259,1268,1268,1273,1277,1287,1292,1292,1297,1301,1311,1316,1316,1321,1332,1332,1337,1342,1353,1358,1358,1358,1363,1374,630,622,617,615,613,607,606,606,605,604,604,604,604,604,604,605,606,607,607,607,609,528,523,518,514,486,486,481,478,475,469,467,464,461,458,456,453,451,420,418,416,416,416,416,415,415
0,424,424,424,425,427,428,429,431,431,433,434,436,437,440,441,443,446,448,449,450,450,451,451,452,453,454,463,463,462,462,462,462,462,461,461,461,461,463,465,466,468,471,474,476,478,482,485,488,493,502,505,519,0,0,0,0,0,0,0,0,0,0,0,0,0,0,2522,2522,2522,2559,2559,2559,2559,2578,2578,2559,1240,1240,1240,1223,1223,1223,1227,1236,1236,1240,1245,1249,1254,1259,1263,1268,1273,1273,1277,1282,1287,1297,1297,1306,1311,1311,1316,1332,1332,1337,1337,1342,1347,1353,1353,1363,1369,630,621,615,612,609,605,603,601,600,599,599,599,601,601,601,601,602,602,602,600,600,529,524,518,515,488,485,480,476,472,468,465,462,460,457,454,452,451,419,416,415,415,415,415,413,413
0,423,423,424,425,426,427,429,430,431,432,433,435,436,438,440,442,444,446,448,449,449,449,450,451,452,463,463,460,459,459,457,457,457,457,458,459,461,462,464,466,468,470,472,474,477,480,484,488,492,496,503,0,0,0,0,0,0,0,0,0,0,0,0,0,0,0,2540,2540,2540,2559,2559,2559,2559,2578,2578,2559,1240,1240,1227,1223,1223,1223,1223,1223,1227,1227,1232,1240,1245,1249,1259,1259,1268,1273,1277,1277,1287,1292,1292,1297,1301,1301,1316,1327,1327,1327,1332,1337,1347,1353,1353,1358,1358,618,618,609,605,603,601,600,599,598,597,597,597,598,598,597,597,597,598,599,600,600,619,525,498,493,488,484,477,475,470,468,463,461,460,455,453,451,449,419,414,414,414,414,413,413,413
0,421,421,423,424,424,426,427,429,430,431,432,434,435,437,439,441,442,445,446,448,449,449,449,451,452,459,457,457,456,456,456,456,456,457,458,459,461,461,463,465,467,469,471,473,476,479,482,486,488,495,500,0,0,0,0,0,0,0,0,0,0,0,0,0,0,0,2540,2540,2559,2559,2559,2559,2559,2559,2559,2578,1240,1240,1227,1218,1218,1218,1218,1223,1223,1227,1232,1236,1240,1249,1254,1259,1263,1263,1273,1277,1282,1287,1287,1297,1297,1297,1311,1327,1327,1327,1327,1332,1342,1347,1353,1353,1358,617,612,607,603,599,597,596,595,594,594,594,593,592,592,593,595,594,594,595,595,598,619,524,498,489,487,482,476,473,470,466,463,460,459,455,453,450,449,415,413,413,412,412,412,412,412
0,421,421,422,423,424,425,425,428,429,430,431,432,434,436,437,440,442,444,445,446,447,448,449,451,452,458,457,457,456,456,456,456,456,457,458,458,460,461,463,464,465,467,469,472,474,477,480,484,488,493,498,0,0,0,0,0,0,0,0,0,0,0,0,0,0,0,0,2559,2559,2559,2559,2559,2540,2540,2559,2540,1232,1232,1223,1210,1210,1210,1214,1223,1223,1227,1232,1236,1240,1249,1249,1254,1259,1259,1268,1273,1277,1282,1287,1292,1297,1297,1306,1316,1321,1327,1327,1327,1337,1342,1342,1347,1358,613,611,603,600,597,596,594,590,590,590,590,591,589,588,588,589,590,590,591,592,596,596,524,493,488,485,481,474,472,468,465,463,460,458,456,452,449,449,413,412,411,411,411,411,411,411
0,420,420,421,422,423,424,425,427,429,429,430,431,433,435,436,438,440,442,444,445,446,447,448,449,459,458,457,456,456,455,455,455,455,456,457,457,458,459,461,463,463,465,467,470,472,474,479,482,486,490,496,0,0,0,0,0,0,0,0,0,0,0,0,0,0,0,0,2559,2559,2559,2559,2540,2540,2540,2559,2540,1223,1223,1223,1210,1206,1206,1210,1218,1223,1223,1227,1232,1236,1245,1249,1254,1254,1259,1263,1263,1268,1277,1282,1287,1292,1297,1306,1311,1311,1321,1327,1327,1332,1337,1337,1342,1353,611,609,600,598,593,591,588,587,587,587,587,587,587,586,586,586,588,587,587,588,592,592,527,491,488,484,480,473,470,467,465,462,459,457,455,451,449,449,411,411,410,410,410,410,410,410
0,419,419,420,421,422,423,424,426,427,429,430,431,432,434,435,437,439,440,442,444,445,446,448,449,458,457,455,455,454,454,454,454,454,454,455,455,456,457,458,460,461,463,465,468,471,473,476,480,484,490,496,0,0,0,0,0,0,0,0,0,0,0,0,0,0,0,0,2578,2540,2540,2559,2540,2540,2540,2540,2540,1214,1214,1223,1210,1206,1206,1206,1210,1218,1218,1227,1232,1236,1245,1245,1245,1254,1254,1259,1263,1268,1273,1277,1282,1287,1297,1301,1301,1306,1316,1321,1327,1332,1332,1337,1342,1353,609,601,596,592,591,588,585,584,584,584,583,583,582,582,582,582,582,582,583,588,592,592,490,490,485,482,479,471,468,466,464,461,459,457,454,450,448,412,409,409,409,409,409,409,409,409
0,418,418,419,420,421,422,423,425,426,427,429,430,431,432,434,435,437,439,441,442,444,445,448,449,457,455,455,454,454,452,452,452,452,453,454,454,454,456,457,459,460,462,464,466,469,472,474,478,482,487,0,0,0,0,0,0,0,0,0,0,0,0,0,0,0,0,0,2559,2522,2522,2540,2540,2540,2540,2540,2540,1210,1210,1218,1210,1206,1201,1201,1206,1210,1214,1218,1227,1232,1240,1240,1240,1249,1254,1259,1259,1263,1273,1277,1282,1282,1287,1292,1297,1301,1306,1316,1321,1332,1332,1337,1342,1347,598,598,593,590,586,584,583,582,582,580,580,580,579,579,580,580,580,580,580,580,580,498,498,490,484,481,476,471,467,465,463,460,458,456,453,449,448,412,408,408,408,408,408,408,408,409
0,417,417,418,419,420,422,423,424,425,427,428,429,431,432,433,435,436,437,440,441,444,445,447,448,456,454,453,452,452,451,451,451,452,452,452,452,454,455,456,457,458,461,462,465,468,470,473,477,482,486,488,0,0,0,0,0,0,0,0,0,0,0,0,0,0,0,0,2503,2503,2522,2540,2522,2503,2503,2540,2540,1210,1210,1218,1206,1206,1201,1201,1206,1206,1214,1218,1223,1227,1232,1236,1240,1245,1249,1254,1254,1259,1268,1273,1282,1282,1287,1292,1297,1301,1301,1306,1316,1327,1327,1327,1337,1342,598,595,591,586,583,583,582,580,576,576,576,576,574,574,574,574,575,577,577,578,509,498,495,488,484,479,474,472,467,464,461,458,457,455,452,449,412,410,408,407,407,407,407,407,407,407
0,416,416,417,418,419,421,422,423,424,426,427,428,430,431,432,434,436,437,439,440,442,445,447,448,454,452,452,452,451,451,450,450,450,451,451,451,452,454,454,456,457,460,461,463,466,469,472,476,480,485,488,0,0,0,0,0,0,0,0,0,0,0,0,0,0,0,2485,2485,2485,2503,2503,2522,2503,2503,2522,2540,1210,1210,1214,1201,1197,1197,1201,1201,1206,1210,1218,1218,1223,1227,1227,1236,1236,1245,1249,1249,1254,1259,1268,1277,1282,1282,1287,1292,1297,1297,1301,1311,1316,1316,1327,1337,1337,598,590,588,582,580,579,575,572,572,573,572,571,571,571,571,571,571,572,572,510,508,496,494,487,484,474,474,471,466,463,461,458,456,454,451,449,412,407,406,405,405,405,405,406,406,406
0,415,415,417,418,419,420,421,422,424,425,425,427,429,431,432,434,435,437,439,440,442,445,447,455,452,451,451,449,449,448,448,448,449,449,449,449,450,452,453,454,456,457,459,461,465,466,471,474,478,484,488,0,0,0,0,0,0,0,0,0,0,0,0,0,0,0,2485,2468,2468,2503,2503,2522,2503,2503,2503,2503,1214,1214,1206,1197,1193,1193,1197,1201,1206,1210,1210,1210,1218,1223,1227,1232,1236,1240,1245,1245,1249,1254,1259,1273,1277,1277,1277,1287,1292,1292,1297,1306,1311,1316,1321,1327,1332,1332,588,587,580,578,575,572,571,570,569,568,568,568,568,567,567,568,568,568,509,502,495,488,485,482,474,472,469,465,463,461,458,454,452,451,448,408,406,404,404,404,404,404,405,406,406
0,414,414,416,417,418,419,420,421,423,424,425,427,428,429,431,433,435,436,438,440,442,445,457,454,452,451,449,449,448,448,447,447,448,448,448,449,449,451,452,454,455,457,458,461,464,466,470,474,478,484,0,0,0,0,0,0,0,0,0,0,0,0,0,0,0,0,2485,2468,2468,2503,2522,2522,2485,2485,2485,2485,1210,1206,1206,1197,1193,1193,1193,1197,1201,1206,1206,1210,1214,1214,1223,1227,1232,1236,1240,1240,1245,1249,1254,1263,1268,1273,1277,1282,1287,1292,1297,1301,1301,1306,1316,1321,1321,1332,584,581,578,575,572,569,568,567,567,566,566,565,565,565,565,565,565,566,505,499,493,487,483,481,473,472,468,465,462,460,457,454,452,449,448,407,405,404,403,403,403,404,404,405,406
0,413,413,414,416,417,418,420,421,422,423,424,426,427,429,431,432,435,436,438,440,442,446,454,452,450,449,448,448,447,447,446,446,446,447,447,448,449,449,451,453,454,456,457,460,463,466,468,474,0,0,0,0,0,0,0,0,0,0,0,0,0,0,0,0,0,0,2468,2468,2485,2503,2503,2503,2485,2485,2485,2485,1206,1206,1206,1193,1189,1189,1189,1189,1197,1201,1206,1210,1214,1214,1218,1223,1227,1232,1236,1236,1240,1249,1254,1259,1259,1263,1277,1277,1277,1287,1292,1297,1301,1301,1311,1316,1316,1327,584,580,575,571,569,567,566,565,564,562,562,562,563,562,561,561,563,561,503,498,492,487,482,479,473,472,468,464,461,458,456,454,451,449,448,405,404,403,402,402,402,403,403,404,404
0,412,412,414,415,416,417,418,420,421,422,424,425,427,429,430,431,435,436,438,440,442,446,453,451,449,448,447,446,446,445,445,445,445,445,446,446,447,448,449,451,453,455,457,458,461,465,467,474,0,0,0,0,0,0,0,0,0,0,0,0,0,0,0,0,0,0,2433,2433,2450,2485,2503,2485,2485,2503,2503,2485,1197,1197,1201,1189,1185,1185,1185,1185,1193,1193,1197,1206,1206,1210,1214,1218,1223,1223,1232,1236,1240,1245,1254,1259,1259,1263,1263,1273,1277,1287,1292,1292,1297,1301,1311,1316,1316,1327,1311,576,571,568,565,564,564,560,558,558,558,559,558,558,558,557,557,557,500,496,490,485,481,478,473,469,466,463,460,458,455,454,449,448,446,404,402,401,401,401,401,401,403,404,404
0,411,411,413,415,416,416,418,419,420,422,423,424,426,428,430,431,434,436,438,440,444,448,451,449,448,446,445,445,445,444,444,444,444,444,445,445,446,446,448,449,452,453,455,458,460,463,466,470,0,0,0,0,0,0,0,0,0,0,0,0,0,0,0,0,0,0,2433,2433,2450,2468,2468,2468,2485,2503,2503,2503,1193,1193,1197,1185,1181,1181,1181,1185,1189,1189,1193,1201,1206,1206,1210,1214,1218,1218,1223,1232,1236,1240,1249,1254,1259,1259,1259,1273,1277,1282,1282,1282,1292,1297,1301,1306,1311,1316,1316,575,571,565,563,560,557,557,556,556,555,555,555,555,555,554,554,554,497,494,487,482,480,476,472,468,466,462,460,458,455,452,449,447,445,404,400,399,399,399,400,401,402,403,404
0,410,410,412,413,414,416,417,418,419,421,422,424,425,428,430,431,434,436,438,441,445,448,449,448,446,444,444,444,442,442,442,442,442,442,444,444,445,445,447,448,449,452,454,457,459,461,466,470,0,0,0,0,0,0,0,0,0,0,0,0,0,0,0,0,0,0,2399,2399,2433,2468,2468,2468,2485,2503,2503,2503,1189,1189,1193,1177,1173,1173,1173,1181,1189,1189,1189,1201,1206,1206,1206,1210,1214,1214,1223,1227,1227,1236,1249,1254,1254,1254,1254,1263,1268,1277,1277,1282,1292,1297,1297,1301,1301,1306,1316,571,567,564,561,558,557,555,555,553,552,552,552,553,552,552,551,551,497,489,486,480,478,474,470,468,464,461,458,458,454,452,449,446,444,401,399,399,398,398,399,401,402,403,403
0,409,409,411,413,414,415,417,418,419,420,422,424,425,428,430,431,434,436,438,442,446,449,449,446,445,444,443,443,442,442,442,441,441,442,443,444,444,445,447,448,449,452,454,456,458,461,466,469,471,0,0,0,0,0,0,0,0,0,0,0,0,0,0,0,0,0,2399,2399,2416,2468,2468,2468,2485,2503,2503,1189,1189,1189,1193,1177,1173,1173,1173,1177,1185,1185,1189,1197,1201,1206,1206,1210,1214,1214,1223,1227,1227,1236,1245,1249,1249,1254,1254,1259,1268,1273,1277,1282,1292,1292,1292,1297,1301,1306,1316,571,565,564,560,557,555,555,554,553,551,551,551,551,550,549,548,548,551,488,486,480,477,473,470,468,463,461,458,456,454,452,449,446,444,400,399,399,398,398,399,400,401,403,403
0,409,409,411,413,414,415,417,418,419,420,422,424,425,428,430,431,434,436,440,443,448,453,449,446,445,444,443,443,442,442,442,441,441,442,443,444,444,445,447,448,449,452,454,456,458,461,466,469,471,0,0,0,0,0,0,0,0,0,0,0,0,0,0,0,0,0,2399,2399,2416,2468,2468,2468,2485,2503,2503,1189,1189,1189,1193,1177,1173,1173,1173,1177,1185,1185,1193,1197,1201,1206,1206,1210,1214,1214,1223,1227,1227,1236,1245,1249,1249,1254,1254,1259,1268,1273,1277,1287,1292,1292,1292,1297,1301,1306,1316,571,565,564,560,557,555,555,554,553,551,551,551,551,550,549,548,548,551,488,486,480,477,473,470,468,463,461,458,456,454,452,449,447,447,400,399,399,399,399,399,400,401,403,405
