0,0,2468,2468,2468,2503,2559,2559,2578,2598,2618,2638,2638,2638,2638,2638,2638,2638,2618,2598,2598,2598,2578,2578,2578,2559,2559,2559,2559,2559,2559,2578,2578,2578,2578,2578,2578,2578,0,0,0,2721,2721,2638,2618,2618,2638,2638,2638,2658,2658,2658,2679,2679,2700,2679,2679,2679,2679,2700,2721,2721,2721,2721,2721,2721,2721,2721,2721,2721,2721,2721,2743,2743,2743,2765,2743,2721,2721,2743,2743,2743,2787,2743,2743,2743,2765,2765,2787,2765,2743,2743,2765,2743,2743,2743,2743,2765,2765,2765,2743,2743,2743,2743,2743,2787,2810,2787,2743,2743,2743,2787,2787,2787,2765,2765,2765,2765,2765,2787,2787,2765,2765,2765,2743,2743,2743,2743,2765,2743,2743,2743,2765,2743,2743,2765,2765,2743,2721,2721,2721,2743,2743,2743,2765,2743,2743,2743,2743,2743,2743,2765,2787,2118,2118,2118,2132,2158,2172,2186
0,0,0,2503,2503,2540,2578,2578,2598,2618,2638,2638,2638,2658,2658,2658,2658,2638,2638,2638,2618,2618,2618,2598,2598,2578,2578,2578,2598,2578,2578,2578,2598,2598,2598,2578,2578,2578,0,0,0,2721,2721,2743,2658,2638,2638,2658,2658,2679,2700,2700,2700,2721,2700,2700,2700,2721,2721,2743,2743,2743,2743,2721,2721,2743,2743,2743,2743,2743,2743,2743,2765,2765,2765,2765,2743,2743,2743,2743,2765,2765,2810,2787,2765,2765,2787,2787,2787,2810,2810,2787,2787,2787,2787,2810,2787,2787,2810,2810,2787,2787,2765,2765,2787,2833,2833,2833,2787,2743,2743,2810,2833,2810,2810,2810,2765,2765,2810,2810,2810,2833,2810,2765,2765,2765,2787,2810,2810,2787,2787,2787,2765,2765,2787,2787,2787,2810,2765,2765,2765,2787,2765,2765,2765,2787,2787,2765,2765,2810,2810,2158,2158,2118,2118,2118,2132,2145,2172,2172
0,0,0,2559,2559,2578,2578,2578,2638,2658,2638,2638,2638,2658,2679,2679,2679,2658,2638,2638,2638,2638,2638,2638,2618,2618,2618,2618,2618,2618,2618,2618,2618,2618,2598,2578,2578,2700,2700,2638,0,2743,2743,2743,2765,2638,2638,2658,2658,2700,2721,2700,2700,2721,2721,2721,2721,2743,2743,2743,2743,2743,2743,2743,2743,2743,2743,2787,2810,2810,2810,2810,2810,2810,2810,2787,2765,2765,2810,2810,2810,2810,2810,2810,2810,2810,2810,2810,2810,2810,2833,2810,2810,2810,2810,2810,2810,2810,2833,2833,2833,2833,2833,2833,2833,2857,2857,2857,2833,2833,2833,2833,2857,2857,2833,2833,2833,2833,2833,2833,2833,2833,2833,2833,2833,2833,2810,2810,2810,2810,2810,2810,2810,2787,2787,2810,2810,2810,2810,2810,2810,2787,2787,2787,2787,2787,2810,2810,2810,2833,2158,2158,2158,2132,2132,2132,2132,2145,2158,2158
0,0,0,2559,2559,2598,2598,2598,2658,2658,2658,2658,2679,2700,2700,2700,2700,2658,2658,2658,2658,2658,2638,2638,2638,2638,2638,2638,2618,2618,2618,2618,2618,2638,2638,2658,2658,2658,2638,2638,2833,2833,2833,2833,2721,2721,2721,2721,2721,2721,2721,2721,2743,2743,2743,2743,2743,2743,2765,2765,2787,2787,2787,2787,2765,2765,2787,2810,2810,2810,2833,2833,2833,2833,2833,2833,2833,2833,2833,2833,2810,2810,2833,2833,2857,2857,2857,2833,2833,2833,2833,2857,2833,2833,2810,2810,2810,2833,2881,2881,2881,2881,2857,2833,2833,2857,2857,2857,2833,2833,2857,2881,2905,2905,2881,2857,2833,2833,2833,2833,2833,2833,2833,2857,2857,2833,2833,2833,2833,2833,2833,2833,2833,2810,2810,2833,2833,2833,2833,2857,2857,2810,2810,2810,2810,2810,2833,2833,2833,2857,2158,2158,2118,2118,2132,2132,2132,2145,2158,2158
0,0,0,2578,2578,2618,2638,2638,2658,2658,2700,2700,2700,2721,2721,2700,2700,2700,2679,2658,2658,2679,2658,2638,2638,2658,2658,2658,2638,2618,2618,2638,2658,2658,2658,2679,2700,2658,2638,2638,2743,2810,2810,0,2765,2765,2765,2743,2743,2743,2743,2743,2743,2765,2787,2787,2765,2765,2765,2787,2787,2787,2787,2810,2833,2833,2833,2833,2833,2833,2833,2833,2857,2857,2857,2833,2833,2833,2833,2833,2833,2833,2833,2833,2881,2881,2857,2857,2857,2857,2857,2857,2881,2881,2833,2833,2833,2833,2905,2881,2881,2881,2881,2905,2905,2905,2905,2905,2881,2881,2881,2905,2905,2905,2905,2905,2881,2881,2881,2881,2881,2881,2881,2881,2881,2905,2881,2881,2857,2857,2881,2857,2857,2857,2857,2857,2857,2857,2881,2857,2857,2881,2881,2833,2833,2833,2833,3006,2186,2186,2186,2172,2118,2118,2132,2132,2132,2132,2132,2158
0,0,0,2598,2598,2638,2638,2658,2658,2679,2700,2721,2721,2743,2721,2721,2721,2721,2700,2700,2700,2679,2679,2658,2658,2658,2658,2658,2658,2658,2658,2658,2658,2679,2679,2700,2700,2700,2679,2679,2743,2810,2810,0,2787,2787,2787,2743,2743,2765,2765,2765,2787,2787,2810,2810,2810,2810,2810,2810,2833,2833,2833,2833,2833,2857,2857,2857,2833,2833,2833,2857,2857,2881,2881,2881,2881,2881,2881,2881,2905,2881,2881,2881,2881,2881,2881,2881,2905,2905,2857,2857,2881,2930,2905,2905,2905,2905,2905,2881,2881,2881,2905,2905,2930,2930,2930,2930,2930,2930,2930,2930,2905,2905,2930,2930,2930,2930,2905,2905,2930,2905,2905,2905,2905,2930,2930,2905,2905,2905,2905,2905,2905,2905,2905,2881,2881,2881,2881,2857,2857,2881,2905,2905,2905,3006,3006,3006,3006,2200,2200,2186,2158,2132,2132,2132,2132,2132,2132,2158
0,0,0,2658,2658,2658,2658,2658,2679,2721,2721,2721,2743,2743,2743,2721,2721,2743,2721,2721,2721,2721,2700,2700,2679,2679,2679,2700,2700,2700,2700,2700,2700,2700,2721,2700,2700,2721,2721,2721,2765,2810,2810,2787,2787,2905,0,2905,2810,2810,2810,2810,2810,2833,2833,2833,2833,2833,2833,2833,2833,2857,2857,2857,2857,2881,2881,2881,2905,2905,2905,2905,2905,2905,2905,2905,2905,2905,2905,2905,2905,2905,2905,2905,2905,2905,2905,2930,2930,2930,2930,2930,2930,2930,2930,2930,2930,2930,2905,2905,2905,2905,2905,2955,2955,2930,2930,2930,2930,2955,3006,2955,2930,2930,2980,2930,2930,2930,2955,2930,2930,2930,2930,2905,2905,2930,2930,2955,2930,2930,2930,2930,2930,2930,2905,2905,2905,2881,2833,2833,2857,2881,2905,2905,0,0,3006,3006,3006,3006,2200,2200,2158,2132,2132,2145,2132,2132,2145,2172
0,0,0,2679,2679,2700,2700,2700,2721,2721,2743,2743,2743,2743,2765,2743,2743,2743,2743,2721,2721,2721,2721,2721,2700,2700,2700,2721,2721,2721,2700,2700,2700,2700,2721,2721,2743,2743,2743,2743,2765,2787,2787,2787,2881,0,0,2905,2857,2810,2810,2810,2810,2833,2857,2857,2857,2881,2857,2857,2857,2881,2881,2881,2881,2905,2905,2905,2930,2930,2930,2930,2930,2930,2930,2930,2930,2905,2905,2930,2930,2930,2955,2930,2930,2955,2955,2955,2955,2980,2980,2955,2955,2955,2955,2955,2955,2955,2930,2930,2955,2955,2955,2980,2980,3006,3006,2955,2955,2980,3006,2980,2980,3006,3006,3006,3006,3006,3006,2980,2980,2980,2980,2955,2955,2980,2955,2955,2955,2930,2930,2930,2930,2905,2905,2905,2881,2857,2833,2833,2833,2857,2857,2810,2186,2186,2228,2228,2228,2200,2200,2186,2172,2158,2158,2158,2145,2145,2158,2186
0,0,0,2679,2679,2700,2721,2721,2743,2743,2743,2743,2765,2765,2765,2765,2765,2765,2743,2743,2743,2721,2721,2721,2721,2743,2721,2721,2721,2721,2721,2721,2721,2721,2721,2743,2765,2765,2765,2765,2787,2787,2787,2881,0,2905,0,2930,2930,2930,2833,2833,2857,2857,2881,2881,2881,2905,2905,2881,2881,2881,2881,2881,2905,2930,2930,2930,2930,2930,2930,2955,2955,2955,2980,2980,2955,2955,2955,2955,2955,2955,2980,2980,2980,3006,3006,3006,3006,3006,3006,3006,3006,3006,2980,2980,3006,3006,3006,3006,3006,3006,3006,3006,3006,3033,3006,3006,3006,3006,3006,2980,2980,3033,3033,3006,3006,3006,3033,3033,3006,3006,3006,3006,2980,2980,2980,2980,2955,2930,2930,2930,2905,2905,2905,2905,2881,2833,2810,2810,2810,2810,2810,2810,2186,2186,2186,2186,2228,2200,2200,2186,2172,2172,2172,2172,2172,2158,2158,2200
0,0,0,2679,2679,2721,2743,2743,2765,2743,2743,2743,2765,2787,2787,2765,2765,2787,2765,2765,2765,2765,2765,2743,2743,2743,2721,2721,2743,2743,2743,2743,2743,2743,2743,2765,2787,2787,2787,2787,2787,2810,2833,2881,2905,2905,0,0,2980,2980,2980,2881,2881,2905,2905,2905,2905,2930,2905,2905,2905,2905,2930,2930,2930,2955,2955,2980,2955,2955,2955,2980,3006,3006,3006,3006,3006,3006,2980,2980,3006,3006,3006,3006,3006,3006,3033,3033,3033,3033,3033,3033,3033,3006,3006,3006,3033,3006,3006,3033,3033,3033,3033,3033,3033,3087,3060,3033,3033,3033,3060,3033,3033,3033,3033,3033,3033,3033,3033,3033,3033,3033,3033,3006,3006,3006,2980,2980,2930,2930,2930,2930,2905,2905,2905,2905,2881,2810,2810,2810,2787,2787,2810,2810,2214,2186,2172,2172,2172,2145,2145,2721,2172,2172,2172,2172,2186,2158,2158,0
0,0,0,2700,2700,2765,2787,2787,2787,2787,2787,2787,2787,2810,2810,2810,2810,2787,2787,2787,2765,2765,2810,2787,2787,2787,2787,2787,2787,2787,2765,2765,2787,2787,2787,2787,2810,2810,2810,2810,2810,2810,2833,2833,2833,2881,0,2881,3006,2905,2905,2905,2905,2930,2930,2930,2930,2930,2930,2930,2955,2955,2955,2955,2955,2980,2980,3006,3006,3006,3006,3006,3006,3006,3006,3060,3060,3060,3033,3033,3033,3060,3060,3060,3033,3033,3033,3033,3033,3033,3060,3060,3087,3087,3087,3087,3060,3033,3033,3033,3060,3033,3033,3033,3060,3087,3115,3060,3060,3087,3115,3087,3087,3087,3060,3060,3060,3033,3033,3087,3033,3006,3006,3006,3006,2980,2955,2955,2930,2905,2905,2905,2905,2905,2881,2881,2881,2810,2810,2810,2787,2787,2810,2765,2186,2186,2172,2158,2158,2145,2145,2679,2679,2700,2700,2214,2200,2132,2132,0
0,0,0,2743,2743,2787,2787,2810,2810,2810,2810,2810,2810,2810,2810,2810,2810,2810,2810,2810,2810,2810,2810,2810,2810,2810,2810,2810,2810,2810,2787,2787,2787,2810,2833,2833,2833,2833,2833,2857,2833,2833,2857,2833,2833,2881,0,0,3006,0,2955,2955,2955,2955,2955,2980,2955,2955,2955,2955,3006,3006,2980,2980,3006,3006,3033,3033,3006,3006,3033,3060,3060,3033,3033,3060,3087,3087,3087,3060,3060,3060,3060,3060,3087,3060,3060,3060,3060,3087,3115,3087,3087,3115,3115,3115,3087,3060,3060,3060,3060,3060,3087,3087,3115,3115,3115,3115,3115,3115,3115,3115,3115,3115,3115,3087,3087,3033,3033,3060,3033,3006,3006,3006,3006,2980,2955,2930,2905,2905,2905,2905,2905,2905,2881,2881,2857,2833,2833,2810,2810,2810,2810,2228,2186,2172,2172,2158,2158,2145,2145,2598,2658,2700,2700,2638,2638,2132,2132,2618
0,0,0,2810,2787,2787,2810,2810,2810,2810,2833,2833,2833,2833,2833,2833,2833,2810,2810,2810,2833,2833,2833,2833,2833,2833,2833,2810,2810,2810,2833,2833,2833,2833,2857,2881,2857,2857,2857,2881,2881,2881,2905,2905,2905,2930,2930,3006,3006,3033,0,2955,2955,2955,2955,2980,3006,3006,3006,3006,3006,3006,3006,3033,3033,3033,3060,3060,3060,3060,3087,3087,3087,3087,3087,3087,3087,3087,3115,3087,3087,3087,3087,3087,3087,3087,3087,3115,3115,3115,3115,3115,3143,3143,3143,3143,3143,3115,3115,3115,3087,3087,3087,3143,3143,3143,3143,3143,3143,3143,3115,3115,3115,3115,3060,3006,3006,3006,3006,3006,3033,3006,2980,2955,2955,2980,2930,2905,2905,2905,2905,2905,2905,2905,2881,2881,2857,2833,2810,2810,2810,2787,2787,2228,2186,2172,2172,2172,2158,2145,2145,2598,2658,2658,2658,2658,2638,2618,2093,2093
0,0,0,2810,2810,2810,2810,2810,2810,2810,2833,2857,2833,2833,2833,2857,2857,2857,2857,2833,2833,2857,2881,2857,2857,2881,2881,2881,2857,2857,2857,2857,2905,2881,2881,2905,2905,2905,2930,2930,2905,2905,2930,2930,2930,2930,2930,3006,3033,3033,3060,3060,3087,2980,2980,2980,3006,3033,3033,3033,3060,3060,3060,3060,3060,3087,3087,3115,3115,3115,3115,3115,3115,3115,3115,3115,3115,3143,3115,3115,3143,3143,3115,3115,3143,3143,3143,3143,3172,3172,3202,3172,3143,3143,3172,3143,3143,3143,3143,3143,3143,3143,3143,3143,3143,3143,3143,3143,3143,3115,3115,3115,3115,3115,3033,2350,2334,2334,2382,2382,2350,2350,2350,2955,2955,2980,2930,2905,2905,2905,2905,2881,2881,2833,2833,2833,2833,2810,2787,2787,2765,2743,2743,2243,2200,2172,2158,2158,2145,2132,2132,2638,2658,2638,2638,2638,2638,2105,2080,2080
0,0,0,2833,2833,2833,2833,2833,2857,2881,2881,2881,2857,2857,2857,2857,2881,2881,2881,2881,2881,2881,2881,2905,2905,2905,2905,2930,2905,2905,2905,2930,2930,2930,2930,2930,2930,2930,2930,2930,2955,2955,2980,2980,2955,2955,2980,3033,3033,3033,3060,3060,3087,3087,3060,3033,3033,3060,3060,3060,3087,3115,3115,3115,3115,3115,3115,3115,3115,3115,3115,3143,3143,3143,3143,3143,3143,3172,3172,3172,3172,3172,3143,3143,3143,3143,3202,3202,3202,3232,3232,3202,3202,3202,3202,3202,3202,3202,3172,3172,3202,3202,3172,3172,3172,3202,3143,3143,3143,3115,3115,3115,3115,3115,2450,2350,2334,2334,2350,2350,2350,2350,2350,2366,2955,2955,2930,2930,2905,2905,2881,2857,2833,2833,2810,2810,2810,2810,2787,2765,2743,2743,2743,2743,2721,2172,2158,2145,2132,2132,2132,2638,2658,2638,2638,2638,2638,2105,2019,2019
0,0,0,2857,2857,2857,2857,2857,2881,2881,2881,2881,2881,2905,2905,2905,2905,2881,2881,2905,2905,2905,2905,2930,2930,2930,2930,2930,2930,2930,2930,2955,2955,2955,2980,2980,2980,2955,2955,2955,3006,3006,3006,3006,3006,3006,3006,3033,3033,3115,3060,3060,3087,3087,3060,3060,3060,3087,3087,3087,3115,3115,3115,3143,3202,3172,3172,3172,3143,3143,3143,3172,3172,3172,3202,3202,3202,3202,3172,3172,3232,3232,3202,3172,3172,3172,3202,3202,3232,3232,3232,3232,3263,3263,3263,3232,3232,3232,3202,3202,3202,3202,3172,3143,3143,3172,3143,3143,3143,3115,3115,3115,2578,2399,2399,2399,2382,2366,2350,2350,2350,2350,2350,2366,2955,2955,2955,2930,2905,2881,2881,2833,2833,2833,2810,2810,2810,2810,2158,2158,2158,2721,2743,2721,2700,2700,2132,2132,2132,2132,2638,2638,2658,2638,2638,2638,2638,2007,2007,2019
0,0,0,2881,2881,2881,2881,2881,2881,2881,2881,2905,2930,2905,2905,2905,2905,2905,2930,2930,2930,2930,2930,2955,2955,2955,2955,2955,2955,2955,2955,2980,2980,2980,3006,3033,3033,3033,3006,3006,3033,3060,3060,3033,3033,3033,3033,3033,3060,3115,3087,3087,3115,3115,3115,3115,3115,3143,3143,3143,3143,3143,3143,3202,3172,3172,3232,3232,3202,3202,3202,3202,3202,3202,3232,3232,3232,3232,3232,3232,3232,3232,3232,3232,3232,3263,3263,3263,3294,3294,3263,3263,3263,3263,3263,3232,3232,3232,3232,3202,3202,3232,3202,3143,3143,3172,3172,3143,3143,3143,3143,2578,2399,2382,2366,2350,2350,2334,2334,2334,2350,2366,2366,2366,2955,2930,2930,2930,2881,2881,2857,2833,2810,2810,2810,2810,2810,2810,2158,2158,2158,2186,2700,2721,2700,2700,2105,2105,2118,2118,2638,2638,2658,2638,2638,2618,2007,2007,2007,2007
0,0,0,2905,2905,2905,2905,2905,2905,2930,2930,2930,2930,2930,2930,2980,2955,2955,2930,2930,2955,2955,2955,2955,2980,2980,2980,2980,2980,2980,3006,3006,3006,3033,3033,3033,3033,3033,3033,3060,3060,3060,3060,3060,3087,3087,3087,3087,3087,3143,3143,3143,3143,3143,3143,3143,3143,3143,3143,3172,3172,3202,3232,3232,3172,3172,3232,3232,3232,3263,3232,3232,3232,3232,3294,3294,3263,3263,3263,3263,3263,3263,3263,3263,3263,3263,3263,3326,3326,3326,3294,3263,3263,3263,3263,3232,3232,3202,3172,3172,3172,3172,3172,3172,3172,3143,3143,3115,3115,3087,3087,2578,2399,2382,2350,2334,2334,2318,2303,2303,2303,2303,2303,2350,2382,2881,2905,2881,2881,2881,2857,2833,2810,2810,2810,2810,2810,2810,2145,2145,2158,2186,2700,2700,2700,2700,2105,2105,2105,2105,2638,2638,2618,2618,2598,2578,1973,1973,1996,1996
0,0,0,2905,2905,2905,2905,2930,2930,2930,2930,2955,2955,2980,2980,2980,2980,2980,2980,2955,2955,2980,2980,2980,3006,3006,3006,3006,3006,3033,3033,3033,3033,3033,3033,3033,3033,3033,3087,3087,3087,3087,3087,3115,3115,3115,3115,3115,3115,3143,3143,3143,3202,3172,3172,3202,3202,3202,3202,3232,3202,3202,3232,3232,3202,3202,3232,3263,3263,3263,3263,3232,3232,3263,3294,3326,3326,3326,3294,3294,3294,3294,3294,3294,3294,3294,3326,3358,3326,3326,3294,3294,3294,3294,3263,3232,3232,3172,3172,3172,3172,3172,3172,3172,3143,3115,3115,3115,3087,3087,3087,2450,2416,2382,2350,2318,2303,2303,2287,2287,2287,2287,2303,2318,2350,2382,2881,2881,2881,2881,2857,2833,2833,2833,2810,2810,2810,2068,2068,2105,2132,2158,2700,2679,2679,2679,2093,2080,2031,2019,2019,2031,2031,2019,2019,1996,1973,1973,1996,1996
0,0,0,2930,2930,2930,2930,2955,2955,2955,2955,2955,3006,3006,3006,3006,3006,3006,3006,2980,2980,3006,3006,3006,3033,3033,3033,3033,3033,3033,3060,3087,3087,3060,3060,3060,3087,3087,3087,3115,3115,3115,3115,3143,3143,3143,3143,3143,3143,3202,3202,3202,3232,3202,3202,3232,3263,3263,3263,3263,3263,3263,3294,3294,3263,3263,3263,3294,3294,3326,3326,3294,3294,3294,3326,3358,3358,3358,3391,3358,3358,3358,3358,3358,3358,3358,3358,3358,3326,3294,3294,3294,3294,3263,3263,3232,3202,3172,3172,3172,3172,3143,3143,3143,3143,3115,3115,3115,3087,3087,3087,2433,2433,2382,2334,2303,2303,2303,2287,2287,2287,2287,2287,2318,2350,2350,2881,2881,2881,2857,2857,2833,2810,2810,2787,2068,2068,2068,2068,2093,2118,2145,2700,2679,2679,2080,2068,2055,2031,2007,2007,2019,2019,2019,2019,1996,1996,1996,1996,1996
0,0,0,2955,2955,2955,2955,2980,3006,3006,3006,3006,3006,3006,3006,3006,3033,3033,3033,3033,3033,3033,3033,3060,3060,3060,3060,3060,3060,3060,3087,3115,3115,3115,3115,3115,3115,3087,3087,3115,3115,3143,3143,3172,3172,3172,3172,3172,3202,3232,3232,3263,3263,3263,3263,3263,3263,3263,3294,3326,3294,3294,3326,3326,3326,3326,3358,3358,3358,3358,3358,3358,3358,3358,3358,3391,3391,3391,3391,3358,3358,3391,3358,3358,3358,3358,3358,3358,3294,3263,3263,3294,3263,3263,3232,3232,3202,3202,3172,3172,3143,3115,3115,3143,3143,3115,3087,3087,3087,3087,3087,2433,2433,2382,2334,2303,2303,2303,2287,2257,2257,2257,2287,2303,2318,2287,2287,2881,2833,2833,2833,2833,2810,2787,2765,2068,2068,2068,2080,2093,2105,2043,2031,2031,2068,2055,2055,2043,2031,2007,2007,2019,2019,2007,2007,2007,2007,2007,1996,1996
0,0,0,3006,3006,3006,3006,3006,3006,3006,3033,3033,3033,3033,3033,3033,3033,3033,3033,3033,3033,3033,3087,3087,3087,3087,3115,3115,3087,3087,3115,3115,3115,3143,3143,3143,3143,3143,3172,3202,3202,3202,3202,3232,3232,3232,3232,3232,3263,3263,3263,3263,3294,3294,3294,3326,3326,3326,3358,3358,3358,3358,3358,3358,3358,3358,3391,3358,3358,3358,3391,3391,3425,3391,3391,3391,3391,3391,3391,3358,3358,3391,3358,3358,3358,3326,3326,3326,3294,3263,3263,3263,3232,3232,3202,3202,3202,3172,3143,3143,3143,3115,3115,3143,3115,3115,3087,3060,3033,3033,3033,2450,2416,2366,2334,2303,2287,2287,2287,2257,2257,2257,2287,2303,2303,2287,2287,2833,2833,2833,2833,2833,2810,2765,2765,2068,2068,2080,2093,2093,2093,2043,2031,2031,2055,2055,2055,2043,2031,2031,2019,2019,2019,2007,2007,2019,2019,2019,1996,1996
0,0,0,3033,3033,3033,3033,3033,3033,3033,3033,3033,3060,3060,3060,3060,3060,3060,3060,3060,3033,3033,3087,3087,3087,3087,3115,3115,3115,3115,3143,3143,3143,3172,3202,3202,3202,3202,3232,3232,3232,3232,3232,3263,3263,3263,3263,3294,3263,3263,3294,3294,3326,3326,3358,3358,3391,3391,3391,3358,3358,3358,3391,3391,3425,3425,3391,3391,3391,3391,3425,3425,3425,3425,3425,3391,3358,3358,3358,3358,3358,3358,3358,3294,3294,3294,3294,3294,3294,3263,3263,3263,3232,3232,3172,3172,3202,3172,3143,3115,3087,3087,3087,3115,3115,3115,3087,3060,3033,3033,3033,2450,2416,2366,2334,2272,2272,2272,2272,2257,2257,2257,2287,2287,2303,2318,2334,2833,2833,2833,2810,2810,2765,2743,2243,2105,2105,2105,2093,2093,2093,2068,2055,2055,2055,2055,2068,2055,2031,2031,2031,2031,2031,2031,2031,2031,2031,2031,1996,1996
0,0,0,3060,3060,3060,3060,3060,3060,3060,3060,3060,3060,3060,3060,3060,3060,3060,3087,3087,3087,3115,3115,3115,3115,3115,3115,3115,3115,3143,3172,3202,3202,3202,3232,3232,3263,3263,3263,3263,3263,3294,3263,3263,3263,3294,3294,3294,3326,3326,3326,3326,3358,3358,3358,3391,3391,3391,3391,3425,3391,3391,3391,3459,3459,3459,3425,3425,3425,3459,3459,3425,3425,3425,3459,3358,3358,3358,3358,3294,3294,3294,3358,3294,3263,3263,3263,3263,3263,3263,3232,3232,3232,3232,3172,3172,3202,3172,3143,3115,3087,3087,3087,3115,3115,3115,3087,3060,3060,3033,3033,2485,2433,2366,2334,2272,2272,2272,2272,2257,2257,2257,2287,2287,2287,2334,2833,2833,2810,2810,2810,2787,2765,2743,2228,2118,2093,2093,2093,2080,2080,2068,2068,2068,2068,2068,2068,2068,2068,2068,2068,2055,2043,2043,2043,2031,2031,2043,2031,2031
0,0,0,3087,3060,3060,3060,3060,3115,3087,3087,3087,3087,3087,3087,3087,3087,3087,3087,3115,3115,3143,3143,3143,3143,3143,3143,3143,3172,3172,3172,3202,3232,3232,3232,3232,3263,3263,3294,3294,3294,3326,3294,3294,3326,3326,3326,3358,3358,3358,3358,3358,3391,3391,3391,3391,3425,3459,3459,3459,3459,3459,3459,3494,3494,3494,3494,3494,3459,3425,3425,3425,3391,3391,3425,3358,3358,3358,3358,3294,3294,3294,3326,3294,3263,3263,3263,3263,3263,3232,3232,3232,3232,3232,3202,3202,3172,3143,3143,3115,3087,3087,3115,2930,2930,3115,3087,3060,3006,3006,2980,2503,2450,2382,2334,2287,2272,2272,2272,2257,2257,2257,2272,2272,2287,2287,2833,2833,2810,2810,2810,2765,2765,2743,2228,2105,2080,2080,2080,2080,2080,2068,2068,2055,2055,2055,2055,2068,2068,2068,2068,2068,2068,2068,2043,2031,2031,2043,2055,2068
0,0,0,3115,3087,3087,3087,3087,3143,3115,3115,3115,3115,3115,3143,3143,3143,3143,3143,3143,3143,3143,3143,3143,3143,3172,3202,3202,3232,3232,3232,3232,3232,3263,3263,3263,3263,3294,3326,3326,3326,3358,3358,3358,3358,3391,3391,3391,3391,3391,3425,3425,3425,3459,3459,3459,3494,3494,3494,3494,3494,3459,3459,3459,3494,3459,3459,3459,3425,3391,3391,3425,3391,3391,3391,3391,3391,3358,3358,3294,3294,3294,3326,3326,3263,3263,3232,3232,3232,3232,3232,3232,3232,3232,3232,3202,3172,3143,3143,3115,3115,3115,3087,2930,2930,3087,3087,2905,2905,2905,2930,2980,2468,2399,2303,2272,2272,2272,2272,2318,2334,2303,2272,2257,2257,2257,2833,2833,2810,2810,2810,2765,2743,2743,2743,2093,2080,2080,2080,2080,2068,2068,2068,2055,2055,2055,2055,2068,2068,2068,2068,2068,2080,2080,2080,2080,2080,2080,2080,2105
0,0,0,3115,3115,3115,3115,3115,3143,3143,3143,3143,3143,3143,3143,3143,3143,3143,3172,3172,3172,3172,3202,3202,3202,3202,3232,3232,3232,3294,3294,3263,3263,3294,3294,3294,3294,3326,3358,3358,3391,3391,3358,3358,3358,3425,3425,3391,3391,3425,3459,3459,3459,3494,3494,3494,3494,3530,3494,3494,3494,3459,3459,3425,3425,3459,3459,3459,3425,3391,3391,3391,3391,3391,3391,3391,3358,3358,3326,3326,3294,3263,3263,3326,3294,3263,3232,3202,3202,3263,3232,3232,3232,3202,3172,3143,3143,3143,3143,3115,3115,3115,2980,2930,2930,3006,3006,2833,2833,2857,2930,2980,2468,2450,2303,2272,2272,2272,2334,2366,2366,2334,2287,2257,2257,2257,2287,2787,2787,2787,2810,2743,2743,2721,2721,2093,2080,2080,2080,2080,2055,2055,2068,2043,2043,2043,2068,2080,2080,2105,2093,2093,2105,2118,2118,2118,2118,2132,2118,2118
0,0,0,3143,3143,3143,3143,3143,3172,3172,3172,3172,3172,3172,3202,3202,3202,3202,3202,3202,3202,3202,3232,3232,3232,3232,3263,3263,3263,3294,3326,3294,3294,3358,3358,3358,3358,3391,3391,3391,3391,3391,3425,3425,3425,3459,3459,3425,3425,3425,3459,3494,3494,3494,3530,3530,3530,3494,3494,3494,3494,3459,3459,3425,3425,3425,3425,3391,3391,3391,3391,3391,3391,3358,3358,3358,3358,3326,3326,3294,3263,3263,3263,3294,3326,3263,3232,3202,3202,3232,3232,3202,3172,3172,3143,3143,3143,3143,3115,3115,3115,3115,2980,2930,2930,2955,2955,2810,2810,2833,2905,2980,2485,2485,2303,2272,2272,2272,2303,2228,2228,2243,2243,2243,2243,2272,2287,2787,2765,2765,2743,2721,2721,2721,2721,2093,2080,2080,2080,2055,2031,2031,2043,2043,2043,2043,2055,2093,2132,2145,2145,2132,2132,2132,2132,2145,2145,2145,2055,2055
0,0,0,3143,3143,3172,3143,3143,3202,3232,3232,3232,3202,3202,3202,3202,3232,3232,3232,3232,3232,3232,3232,3232,3232,3263,3294,3294,3294,3294,3358,3358,3358,3358,3391,3391,3391,3425,3425,3425,3425,3459,3494,3459,3459,3459,3494,3494,3494,3494,3530,3530,3530,3530,3530,3530,3494,3459,3459,3459,3459,3425,3425,3425,3425,3391,3391,3391,3391,3358,3358,3358,3358,3358,3358,3358,3358,3326,3294,3263,3263,3263,3263,3263,3263,3263,3232,3232,3232,3232,3202,3143,3143,3143,3143,3143,3143,3143,3115,3115,3115,3115,2905,2905,2930,2930,2905,2787,2787,2787,2905,2980,2955,2955,2303,2272,2243,2228,2228,2228,2228,2200,2200,2200,2200,2200,2287,2743,2765,2743,2743,2721,2721,2721,2721,2658,2080,2068,2055,2043,2019,2019,2019,2031,2031,2031,2043,2080,2172,2172,2172,2158,2158,2172,2158,2158,2158,2055,2031,2031
0,0,0,3172,3172,3172,3143,3143,3202,3232,3263,3263,3232,3232,3232,3232,3263,3263,3232,3232,3263,3263,3294,3263,3263,3294,3326,3326,3358,3358,3358,3391,3391,3391,3391,3425,3425,3459,3459,3459,3459,3494,3530,3494,3494,3494,3494,3530,3530,3530,3494,3494,3494,3530,3494,3494,3425,3425,3425,3459,3459,3425,3425,3425,3425,3391,3391,3391,3391,3358,3358,3358,3358,3358,3358,3358,3326,3294,3263,3263,3263,3263,3263,3263,3263,3263,3263,3232,3232,3232,2485,2485,2503,3143,3143,3115,3115,3143,3115,3087,3087,3087,2833,2833,2905,2905,2833,2765,2765,2765,2833,2905,2980,2980,2303,2287,2228,2214,2214,2214,2200,2186,2186,2186,2172,2118,2118,2721,2765,2743,2743,2743,2743,2721,2700,2658,2068,2055,2055,2043,2019,2007,2007,2019,2019,2019,2019,2031,2186,2186,2186,2186,2186,2186,2172,2145,2068,2043,2031,2031
0,0,0,0,3202,3202,3143,3143,3232,3263,3263,3263,3263,3263,3263,3263,3294,3294,3263,3263,3263,3294,3326,3326,3326,3358,3358,3358,3391,3391,3425,3425,3425,3425,3425,3459,3494,3494,3494,3494,3494,3494,3530,3530,3530,3530,3530,3530,3494,3494,3494,3494,3459,3459,3459,3459,3425,3425,3425,3425,3425,3425,3425,3425,3425,3391,3391,3391,3391,3358,3358,3358,3358,3358,3358,3326,3326,3294,3263,3263,3263,3263,3263,3263,3263,3263,3263,3232,2450,2450,2450,2468,2485,2485,3115,3115,3115,3143,3115,3087,3087,3087,2833,2833,2833,2833,2787,2765,2765,2765,2787,2905,2930,2905,2303,2287,2228,2200,2200,2186,2172,2172,2158,2118,2105,2093,2093,2721,2765,2743,2743,2743,2721,2679,2679,2700,2043,2043,2043,2031,2019,2007,2007,2007,2019,2019,2019,2019,2214,2200,2200,2214,2214,2200,2186,2068,2068,2043,2043,2043
0,0,0,0,3294,3263,3232,3232,3232,3263,3263,3263,3294,3294,3294,3294,3294,3294,3326,3326,3326,3326,3326,3358,3358,3391,3391,3391,3425,3425,3459,3494,3494,3494,3494,3494,3530,3530,3530,3530,3530,3530,3530,3530,3494,3494,3494,3494,3494,3494,3494,3459,3459,3459,3459,3459,3425,3425,3425,3425,3391,3391,3391,3391,3391,3391,3391,3358,3358,3326,3326,3326,3294,3294,3294,3294,3294,3232,3232,3232,3263,3263,3263,3232,3202,3202,3232,3232,2433,2433,2433,2433,2468,2468,3115,3115,3143,3143,3115,3087,3087,3060,2833,2833,2810,2743,2721,2721,2743,2765,2765,2905,2905,2905,2257,2200,2186,2172,2158,2132,2132,2145,2118,2105,2105,2093,2093,2743,2743,2743,2743,2700,2679,2679,2679,2679,2043,2043,2043,2031,2019,2007,2007,2007,2007,2007,2007,2019,2031,2105,2093,2080,2068,2055,2043,2043,2043,2031,2019,2019
0,0,0,0,3326,3326,3294,3294,3294,3294,3263,3263,3294,3326,3326,3358,3358,3358,3391,3358,3358,3391,3391,3391,3391,3425,3425,3425,3459,3494,3494,3530,3530,3530,3530,3567,3567,3530,3530,3530,3530,3530,3530,3530,3494,3459,3459,3459,3494,3459,3459,3425,3425,3459,3459,3459,3459,3459,3425,3391,3391,3391,3358,3358,3391,3358,3358,3358,3358,3326,3326,3294,3263,3263,3263,3294,3294,3232,3232,3232,3263,3263,3232,3232,3202,3202,3232,3232,2416,2416,2416,2433,2416,2416,3115,3060,3060,3087,3033,3033,3087,3033,2416,2416,2416,2743,2721,2721,2743,2765,2765,2905,2905,2905,2243,2186,2172,2158,2145,2132,2132,2118,2118,2105,2093,2093,2093,2093,2658,2700,2721,2658,2658,2679,2679,2679,2055,2043,2031,2019,2019,2007,2007,2007,1996,1996,1996,2007,2031,2068,2068,2068,2068,2055,2043,2031,2019,2019,1996,1996
0,0,0,0,3358,3326,3326,3326,3326,3294,3294,3294,3294,3358,3358,3358,3391,3391,3391,3391,3425,3459,3459,3459,3459,3459,3494,3494,3530,3530,3530,3530,3494,3494,3530,3530,3567,3530,3530,3530,3530,3530,3494,3494,3494,3459,3459,3459,3459,3425,3425,3425,3425,3459,3425,3425,3425,3425,3425,3391,3391,3391,3358,3358,3358,3358,3326,3326,3326,3326,3294,3263,3263,3263,3263,3263,3263,3263,3263,3232,3232,3232,2416,2416,2433,2468,2485,3232,2416,2416,2416,2416,2399,2399,2399,3060,3060,3060,3033,2485,2485,2450,2416,2416,2399,2382,2366,2350,2350,2257,2243,2228,2228,2228,2214,2186,2172,2158,2145,2132,2118,2118,2118,2105,2080,2080,2093,2093,2658,2679,2700,2658,2658,2679,2700,2679,2093,2043,2031,2007,2007,1996,1996,1996,1996,1996,1984,1984,2031,2068,2055,2055,2055,2043,2043,2007,2007,2007,1996,1996
0,0,0,0,3391,3358,3358,3358,3358,3326,3326,3326,3326,3358,3358,3391,3425,3425,3425,3459,3459,3459,3459,3494,3494,3494,3530,3530,3567,3530,3530,3494,3494,3494,3530,3530,3530,3530,3530,3530,3530,3494,3494,3459,3459,3459,3459,3459,3459,3425,3425,3425,3425,3425,3425,3425,3425,3391,3391,3391,3391,3391,3391,3358,3358,3358,3326,3326,3326,3326,3294,3263,3263,3263,3232,3232,3232,3263,3263,3232,3202,3202,2416,2416,2416,2433,2433,2399,2382,2382,2399,2416,2399,2399,2399,3060,3060,3060,2485,2433,2433,2433,2433,2399,2303,2272,2272,2287,2243,2228,2214,2214,2214,2186,2186,2186,2172,2145,2145,2118,2105,2105,2105,2105,2080,2080,2093,2132,2658,2679,2700,2679,2679,2658,2658,2658,2658,2043,2031,2007,2007,1996,1996,1996,1984,1984,1984,1984,2019,2068,2055,2055,2031,2031,2031,2007,2007,2007,1996,1996
0,0,0,0,3391,3391,3358,3358,3391,3391,3358,3358,3358,3391,3425,3459,3459,3459,3459,3494,3494,3494,3494,3530,3530,3530,3530,3530,3530,3530,3494,3494,3494,3494,3494,3494,3494,3494,3494,3530,3530,3494,3494,3459,3459,3459,3459,3459,3459,3459,3425,3391,3391,3391,3391,3425,3391,3391,3391,3391,3391,3391,3391,3358,3326,3326,3326,3326,3294,3263,3263,3263,3263,3263,3232,3232,3232,3232,3232,3232,3202,3202,2416,2416,2416,2433,2416,2399,2382,2382,2382,2416,2399,2399,3006,3060,3060,2450,2450,2433,2303,2303,2318,2287,2257,2243,2243,2243,2243,2228,2214,2214,2214,2186,2186,2186,2186,2145,2145,2118,2093,2093,2093,2105,2105,2093,2093,2118,2658,2679,2700,2700,2638,2638,2638,2638,2638,2031,2031,2019,2007,2007,1996,1984,1984,1984,1984,1984,2019,2068,2068,2043,2031,2031,2019,2007,2007,2007,1996,1996
0,0,0,0,3391,3391,3425,3425,3425,3425,3425,3459,3459,3459,3494,3459,3459,3459,3494,3530,3530,3530,3530,3530,3530,3530,3530,3530,3530,3530,3494,3494,3494,3494,3494,3494,3494,3459,3459,3494,3494,3494,3459,3459,3459,3425,3425,3459,3425,3425,3425,3391,3391,3391,3391,3391,3358,3358,3358,3358,3391,3391,3358,3326,3326,3326,3294,3294,3263,3232,3232,3232,3263,3263,3232,3202,3202,3202,3232,3202,3202,2485,2433,2416,2416,2433,2416,2399,2382,2366,2366,2366,2399,2399,3006,3060,3115,2366,2334,2257,2257,2257,2257,2287,2257,2243,2243,2243,2243,2228,2214,2214,2200,2200,2186,2172,2172,2158,2132,2118,2093,2093,2093,2105,2093,2080,2080,2105,2700,2679,2679,2618,2618,2618,2638,2638,2638,2019,2019,2019,2007,1996,1973,1973,1973,1984,1973,1973,1984,2031,2031,2031,2031,2019,2019,2019,2019,2007,1996,1996
0,0,0,0,3459,3459,3459,3494,3494,3494,3459,3459,3494,3459,3459,3459,3425,3425,3459,3459,3459,3459,3494,3494,3530,3530,3530,3530,3530,3530,3530,3494,3494,3494,3494,3459,3459,3459,3459,3494,3459,3459,3459,3459,3425,3425,3425,3425,3391,3391,3391,3358,3358,3391,3391,3358,3358,3358,3358,3358,3358,3358,3326,3294,3294,3294,3294,3263,3263,3232,3232,3232,3263,3232,3232,3202,3202,3172,3143,3143,2433,2433,2433,2433,2433,2433,2416,2382,2366,2350,2350,2350,2366,2350,2334,2318,2303,2303,2303,2257,2257,2257,2257,2287,2272,2243,2243,2243,2228,2228,2228,2214,2200,2200,2186,2172,2172,2158,2132,2118,2093,2093,2093,2105,2080,2080,2080,2068,2068,2658,2658,2618,2618,2618,2638,2638,2638,1996,1996,1996,2007,1984,1973,1973,1961,1939,1939,1939,1961,1984,2031,2031,2031,2019,2019,2007,2007,1996,1996,1996
0,0,0,0,3494,3494,3494,3494,3530,3530,3494,3494,3494,3391,3391,3425,3425,3425,3459,3425,3425,3425,3494,3494,3494,3530,3530,3530,3494,3494,3494,3494,3494,3494,3459,3459,3459,3459,3459,3459,3459,3391,3391,3425,3425,3425,3425,3391,3391,3391,3391,3358,3358,3391,3358,3358,3358,3358,3358,3358,3358,3358,3326,3294,3294,3294,3294,3263,3263,3232,3232,3232,3232,3202,3202,3202,3202,3172,3143,3143,2416,2416,2416,2433,2416,2416,2399,2382,2350,2350,2334,2334,2334,2303,2303,2318,2303,2287,2287,2272,2243,2243,2243,2243,2243,2243,2243,2228,2228,2228,2214,2214,2214,2200,2186,2172,2158,2145,2132,2118,2105,2105,2105,2093,2080,2080,2080,2068,2068,2658,2658,2638,2638,2638,2638,2638,2638,1984,1984,1996,1996,1984,1973,1973,1961,1939,1939,1939,1961,1973,2043,2043,2043,2019,2019,2007,1996,1996,1996,2007
0,0,0,0,3494,3494,3530,3530,3530,3530,3530,3567,3494,3391,3391,3425,3425,3459,3425,3425,3425,3425,3494,3494,3494,3494,3494,3494,3494,3494,3494,3494,3459,3459,3459,3459,3459,3459,3459,3459,3425,3358,3358,3358,3391,3459,3425,3391,3358,3358,3358,3358,3391,3391,3358,3358,3358,3326,3326,3326,3326,3326,3326,3294,3294,3263,3232,3232,3232,3232,3232,3202,3202,3202,3202,3202,3202,3172,3143,3143,2416,2399,2399,2399,2350,2350,2350,2350,2334,2334,2334,2334,2318,2303,2303,2303,2287,2287,2287,2272,2243,2243,2243,2243,2243,2243,2243,2228,2228,2228,2214,2214,2186,2172,2172,2158,2158,2132,2105,2105,2093,2093,2093,2093,2080,2080,2080,2080,2080,2658,2658,2658,2638,2618,2618,2638,2638,1984,1984,1984,1984,1973,1961,1961,1961,1961,1961,1950,1950,1973,2055,2043,2031,2019,2007,2007,1996,1996,1984,1984
0,0,0,0,3530,3530,3567,3567,3604,3567,3567,3642,3530,3425,3391,3391,3391,3425,3425,3425,3425,3425,3494,3494,3494,3494,3494,3494,3494,3494,3494,3494,3459,3459,3459,3425,3425,3391,3391,3391,3263,3232,707,707,707,710,3425,3391,3358,3358,3358,3358,3391,3391,3358,3358,3358,3326,3326,3326,3326,3294,3294,3263,3263,3232,3232,3202,3202,3232,3232,3202,3202,3202,3202,3172,3172,3172,2416,2382,2366,2366,2366,2350,2334,2334,2334,2334,2318,2318,2318,2334,2303,2303,2287,2272,2272,2272,2287,2287,2243,2243,2243,2243,2243,2243,2243,2228,2228,2228,2228,2214,2186,2172,2158,2158,2145,2132,2105,2093,2093,2093,2093,2093,2043,2043,2043,2080,2080,2638,2638,2658,2638,2618,2618,2598,2598,2007,1996,1973,1973,1973,1961,1950,1950,1950,1950,1950,1950,1950,2019,2031,2019,2007,1996,1984,1984,1973,1961,1961
0,0,0,0,3604,3604,3567,3567,3604,3567,3567,3604,3494,3425,3391,3391,3391,3425,3459,3459,3459,3494,3494,3494,3494,3494,3494,3494,3494,3494,3459,3425,3425,3391,3391,3391,697,697,697,697,697,697,697,699,702,706,710,3391,3358,3358,3358,3391,0,0,0,0,3358,3358,3326,3326,3326,3294,3294,3263,3263,3202,3202,3143,3143,3143,3172,3172,3202,3202,3172,3143,3143,2382,2382,2382,2366,2366,2350,2350,2334,2334,2334,2303,2303,2303,2318,2303,2287,2287,2287,2272,2272,2272,2272,2257,2257,2257,2257,2243,2243,2243,2243,2214,2214,2214,2200,2200,2172,2145,2145,2132,2132,2118,2105,2093,2093,2093,2080,2068,2043,2043,2043,2080,2080,2618,2618,2638,2638,2638,2578,2578,2578,2578,1984,1973,1961,1961,1961,1950,1939,1939,1950,1929,1929,1939,1973,2019,1996,1996,1984,1973,1973,1961,1929,1929
0,0,0,0,3642,3642,3567,3567,3642,3642,3604,3604,3425,3358,3358,3358,3358,3425,3459,3459,3459,3459,3494,3494,3494,3494,3494,3494,3459,3459,3391,3358,3358,3358,682,682,685,685,688,690,690,690,690,695,686,686,686,688,690,692,692,692,0,0,0,0,0,0,0,0,0,0,3326,3263,3263,3115,3115,3115,3115,3143,3172,3172,3172,3143,3143,3143,3143,2382,2382,2382,2366,2366,2350,2350,2350,2334,2334,2303,2303,2303,2334,2303,2287,2272,2272,2287,2272,2272,2257,2243,2243,2257,2257,2257,2228,2228,2228,2214,2186,2186,2186,2186,2172,2145,2145,2132,2132,2118,2118,2080,2080,2068,2055,2055,2043,2043,2043,2080,2105,2598,2598,2618,2618,2618,2578,2578,2578,2578,1973,1961,1961,1961,1950,1950,1939,1939,1939,1929,1929,1929,1950,1984,1984,1973,1950,1950,1918,1856,1856,1856
0,0,0,0,3681,3681,3681,3681,3681,3681,3681,3642,3425,3358,3358,3358,3358,3391,3425,3459,3459,3459,3459,3459,3459,3459,3459,3425,3425,3358,3358,3358,670,670,675,670,670,677,679,681,681,677,677,677,678,681,681,682,686,692,692,692,685,0,0,0,0,0,0,0,0,0,0,0,0,3115,3115,3115,3115,3143,3172,3172,3143,3143,3143,3115,3115,2350,2350,2366,2366,2366,2366,2366,2350,2334,2318,2303,2303,2303,2303,2318,2287,2272,2272,2257,2257,2272,2243,2214,2214,2243,2243,2228,2228,2214,2214,2200,2186,2172,2172,2172,2172,2145,2145,2132,2132,2132,2132,2068,2068,2068,2055,2055,2043,2043,2055,2068,2105,2598,2598,2618,2618,2618,2578,2578,2559,2559,1939,1939,1950,1950,1950,1950,1939,1929,1929,1929,1929,1929,1939,1897,1897,1897,1897,1886,1876,1856,1856,1856
0,0,0,0,3762,3762,3762,3762,3762,3721,3721,3425,3326,3326,3358,3358,3358,3391,3425,3425,3425,3459,3459,3459,3459,3425,3425,3391,3391,3358,3358,665,665,665,665,668,669,673,673,673,671,671,673,671,671,673,675,677,678,679,682,685,685,0,0,0,0,0,0,0,0,0,0,0,0,0,0,3115,3115,3143,3143,3143,3143,3143,3143,3115,3115,2318,2318,2350,2334,2334,2334,2334,2350,2318,2303,2287,2287,2303,2303,2287,2287,2272,2272,2257,2257,2272,2243,2214,2214,2228,2228,2228,2214,2200,2186,2186,2186,2172,2172,2158,2145,2132,2132,2132,2132,2132,2118,2068,2068,2068,2055,2055,2055,2055,2055,2068,2118,2145,2598,2598,2598,2578,2578,2578,2559,2559,1939,1939,1950,1950,1939,1939,1939,1918,1918,1929,1918,1918,1918,1886,1886,1886,1897,1886,1876,1866,1856,1856
0,0,0,0,3762,3762,3803,3803,3762,3721,3721,3358,3326,3294,3294,3326,3358,3391,3425,3391,3391,3425,3425,3425,3425,3425,3391,662,662,662,662,662,661,661,664,665,669,671,662,662,664,670,669,669,669,670,674,675,675,675,677,685,0,0,0,0,0,0,0,0,0,0,0,0,0,0,0,3143,3143,3060,3060,3087,3115,3115,3143,3115,3087,2318,2318,2334,2303,2303,2287,2287,2334,2318,2303,2287,2287,2303,2303,2287,2272,2257,2257,2257,2257,2272,2243,2214,2214,2214,2214,2200,2200,2200,2186,2186,2186,2172,2158,2145,2132,2132,2118,2118,2118,2118,2118,2080,2080,2080,2055,2043,2043,2043,2043,2055,2105,2145,2598,2598,2559,2559,2559,2578,2559,2503,1939,1939,1950,1950,1939,1929,1929,1907,1907,1907,1897,1897,1897,1886,1886,1886,1897,1886,1876,1876,1866,1866
0,0,0,0,3803,3803,3803,3803,3762,3721,3721,3326,3326,3294,3294,3326,3358,3358,3391,3391,3391,3391,3391,3391,3391,3391,662,660,659,657,657,662,661,661,664,665,669,659,659,660,662,668,660,659,657,657,674,670,670,674,675,685,685,685,0,0,0,0,713,713,0,0,0,0,0,0,0,0,0,3060,3060,3060,3087,3115,3115,3087,3087,2350,2350,2318,2303,2303,2287,2287,2318,2303,2303,2303,2303,2287,2287,2287,2272,2257,2257,2257,2257,2243,2243,2228,2200,2200,2214,2200,2200,2186,2186,2186,2172,2172,2158,2145,2132,2118,2105,2105,2118,2093,2093,2080,2068,2055,2031,2031,2031,2031,2031,2043,2093,2132,2618,2578,2559,2559,2559,2559,2559,2503,1950,1939,1939,1939,1929,1929,1929,1907,1907,1907,1897,1897,1897,1897,1897,1897,1897,1897,1897,1897,1929,1950
0,0,0,0,3846,3846,3889,3803,3803,3846,3933,3326,3326,3294,3294,3326,3358,3358,3391,3391,3391,3391,3391,3391,659,657,655,655,655,655,657,662,664,666,668,668,668,659,659,660,655,655,655,655,655,656,674,670,670,674,675,682,681,681,681,685,0,713,713,713,713,749,0,0,0,0,0,0,0,0,3060,3060,3087,3115,3115,3087,3087,2318,2318,2318,2318,2318,2334,2334,2303,2303,2303,2287,2272,2272,2272,2272,2272,2257,2243,2243,2243,2228,2228,2200,2200,2200,2200,2200,2200,2186,2186,2186,2172,2158,2158,2145,2132,2105,2105,2105,2105,2093,2080,2055,2043,2043,2031,2031,2031,2031,2031,2031,2055,2132,2598,2578,2578,2559,2559,2559,2559,2522,2522,1929,1929,1929,1918,1918,1918,1907,1897,1897,1897,1897,1897,1939,1907,1907,1918,1961,1973,1950,1950,1973
0,0,0,0,3979,3979,3933,3933,3933,3933,3933,3294,3294,3294,3294,3294,3326,3358,3358,3358,3391,3391,3391,659,656,654,652,651,651,655,665,664,662,662,662,664,659,659,660,661,654,649,649,650,652,655,657,657,657,684,684,677,677,677,678,682,703,703,705,707,713,744,747,0,0,0,0,0,0,0,3060,3060,3115,3087,3087,3087,3087,2318,2318,2318,2318,2318,2318,2303,2303,2287,2287,2287,2272,2272,2272,2272,2257,2243,2243,2243,2243,2228,2214,2200,2200,2200,2200,2186,2186,2186,2186,2186,2172,2132,2132,2132,2118,2105,2105,2105,2105,2093,2080,2055,2043,2043,2031,2031,2019,2019,2019,2031,2031,2559,2578,2578,2578,2559,2559,2559,2540,2522,2503,1929,1929,1929,1918,1918,1918,1897,1897,1897,1886,1886,1886,1897,2007,1984,1984,2007,2007,1984,1984,2007
0,0,0,3006,3006,3006,3006,4025,4025,3979,3933,3294,3294,3263,3263,3294,3294,3326,3358,3358,3326,652,651,651,654,651,651,651,651,664,659,657,657,654,651,651,651,655,657,660,644,644,645,647,652,655,657,657,655,684,684,674,674,674,678,681,697,697,702,707,739,739,743,0,0,0,0,0,0,0,0,3143,3115,3060,3060,3033,3033,2318,2318,2303,2303,2303,2303,2287,2287,2287,2287,2287,2272,2272,2257,2257,2257,2243,2243,2228,2228,2228,2200,2186,2186,2200,2186,2186,2172,2172,2172,2172,2158,2132,2132,2118,2118,2105,2105,2105,2080,2080,2080,2055,2007,2007,2043,2031,2019,2019,2019,2019,2031,2540,2578,2559,2559,2559,2559,2540,2522,2522,2485,1907,1907,1918,1918,1918,1897,1886,1886,1886,1886,1886,1886,1886,2043,2031,2019,2019,2031,2031,2031,2031
0,0,0,3006,3006,3006,3006,3033,3033,3033,3979,3294,3263,3232,3232,3294,3294,3326,3358,3358,3326,652,651,651,654,651,651,651,660,655,652,652,652,650,650,650,651,655,655,657,641,641,643,646,650,655,655,655,655,657,659,670,670,671,675,679,689,695,699,702,731,731,736,744,0,0,0,0,0,0,0,0,0,3060,3006,3006,2287,2287,2303,2303,2287,2287,2287,2287,2287,2287,2287,2287,2272,2272,2257,2243,2228,2228,2243,2228,2214,2214,2200,2186,2186,2186,2172,2172,2172,2172,2158,2145,2145,2132,2132,2118,2105,2093,2093,2093,2080,2080,2080,2031,1996,1996,2031,2031,2007,2007,1996,1996,1996,2522,2578,2559,2540,2540,2559,2522,2522,2522,2485,1897,1897,1897,1907,1897,1897,1886,1886,1886,1876,1876,1876,1876,1886,2055,2055,2055,2068,2080,2068,2068
0,0,0,2955,2955,2980,3006,3033,3033,3033,3087,3143,3232,3232,3232,3263,3294,3326,3326,3326,654,654,654,654,654,654,665,659,656,651,650,650,650,649,649,649,650,651,651,640,640,640,641,644,650,659,669,655,655,656,657,661,666,669,674,679,686,693,696,700,722,728,731,735,744,0,0,0,0,0,0,0,0,0,3006,2980,2287,2287,2303,2303,2287,2287,2287,2287,2287,2287,2287,2272,2257,2257,2257,2228,2228,2228,2228,2214,2186,2186,2186,2172,2172,2172,2158,2158,2158,2158,2158,2145,2132,2132,2118,2105,2105,2093,2093,2093,2080,2080,2068,2031,1996,1996,2031,2007,1996,1996,1996,1996,1996,2522,2559,2559,2540,2540,2540,2503,2503,2522,1950,1897,1897,1897,1897,1897,1897,1886,1886,1886,1876,1876,1876,1876,1886,2093,2093,2093,2093,2105,2118,2186
0,0,0,2955,2955,2980,3006,3006,3033,3060,3087,3143,3172,3232,3232,3263,3294,3326,3326,656,654,652,652,654,654,662,659,654,651,649,647,647,647,647,647,647,647,649,650,639,639,640,640,644,645,665,665,655,655,656,657,661,665,669,674,684,685,690,695,697,718,721,727,735,741,0,0,0,0,0,0,0,0,0,0,2980,2980,2303,2303,2303,2287,2287,2287,2287,2287,2287,2287,2257,2257,2257,2257,2228,2228,2228,2214,2186,2186,2186,2186,2172,2172,2172,2158,2158,2158,2158,2145,2132,2132,2118,2118,2105,2093,2093,2093,2093,2080,2080,2068,2031,2019,2019,2031,2007,1996,1984,1984,1984,1996,2522,2522,2559,2559,2559,2540,1961,1961,1961,1950,1907,1907,1907,1897,1897,1886,1886,1876,1866,1866,1876,1856,1836,1836,2118,2132,2132,2172,2172,2172,2172
0,0,0,2955,2955,2980,3006,3006,3033,3087,3115,3115,3143,3232,3232,3232,3263,3294,3326,656,654,652,652,678,662,659,652,650,647,646,645,644,644,645,645,645,645,645,640,639,639,640,640,644,645,661,655,654,654,655,659,661,665,669,674,678,682,688,692,697,712,719,721,735,741,0,0,0,0,0,0,0,0,0,3006,3006,3006,2303,2303,2303,2257,2257,2257,2257,2287,2272,2243,2243,2228,2228,2228,2228,2214,2214,2214,2186,2186,2186,2172,2172,2172,2172,2172,2158,2158,2158,2132,2132,2118,2118,2118,2105,2093,2080,2080,2080,2080,2068,2055,2043,2019,2007,2007,2019,1984,1984,1984,1984,1984,1996,2522,2522,2522,2540,2522,1961,1939,1939,1939,1939,1907,1897,1897,1886,1876,1876,1876,1866,1866,1856,1846,1817,1817,2172,2172,2186,2172,2172,2172,2172
0,0,0,2955,2955,2955,3006,3006,3033,3060,3087,3115,3143,3172,3232,3232,3263,3263,3326,661,654,654,654,654,660,655,650,647,645,645,643,643,643,644,644,643,643,644,640,639,639,639,641,654,657,660,651,651,652,655,659,662,665,670,674,677,679,685,690,699,712,718,719,727,741,744,0,0,0,0,0,0,0,0,3006,2930,2930,2303,2287,2287,2257,2257,2257,2257,2272,2272,2243,2243,2228,2228,2214,2214,2214,2214,2200,2186,2186,2172,2172,2172,2172,2172,2158,2158,2158,2145,2132,2132,2118,2105,2105,2105,2093,2080,2080,2080,2080,2055,2055,2043,2019,1984,1984,2007,1984,1973,1973,1973,1973,1996,2522,2522,2522,2522,2007,1950,1918,1918,1929,1950,1907,1886,1886,1886,1876,1876,1866,1856,1856,1856,1846,1817,1817,1817,2172,2200,2172,2172,2172,2172
0,0,0,2930,2930,2930,2980,3033,3033,3033,3060,3115,3143,3172,3202,3232,3263,3263,3263,3358,3358,3358,665,665,659,654,649,647,645,641,640,640,640,640,640,640,640,641,640,639,639,639,650,654,655,657,651,651,652,655,659,664,665,670,674,675,677,684,690,699,716,716,718,727,736,743,0,0,0,0,0,0,0,0,0,2905,2905,2287,2287,2257,2228,2228,2228,2228,2243,2243,2243,2243,2228,2214,2214,2214,2200,2200,2200,2186,2172,2172,2172,2158,2145,2145,2158,2145,2145,2132,2132,2132,2105,2080,2080,2093,2093,2080,2080,2068,2068,2055,2043,2031,2019,1984,1984,1984,1984,1973,1961,1961,1973,1996,2522,2522,2522,2522,1886,1886,1907,1907,1918,1939,1907,1876,1876,1886,1876,1866,1866,1856,1856,1856,1836,1817,1817,1817,2172,2200,2186,1817,1817,1817
0,0,0,2930,2930,2930,2980,3006,3006,3033,3060,3115,3143,3172,3202,3232,3232,3263,3263,3263,3232,3232,665,665,656,651,647,645,643,640,639,638,638,638,637,637,638,639,640,640,640,640,650,651,652,655,660,654,654,666,669,670,674,673,673,673,677,684,695,700,702,716,718,727,733,741,0,0,0,0,0,0,0,0,0,2905,2905,2243,2243,2228,2228,2228,2228,2228,2228,2228,2228,2214,2200,2186,2186,2200,2200,2200,2200,2186,2172,2172,2145,2132,2132,2132,2145,2132,2132,2118,2118,2105,2093,2080,2080,2093,2068,2055,2055,2043,2043,2031,2031,2031,2031,1984,1984,1984,1973,1973,1961,1961,1973,1996,2019,2503,2522,1866,1866,1876,1876,1886,1897,1929,1929,1876,1876,1876,1866,1866,1856,1846,1846,1846,1836,1826,1826,1836,2200,2186,1846,1817,1817,1817
0,0,0,2930,2930,2955,2980,3006,3006,3033,3060,3115,3143,3172,3202,3232,3232,3263,3232,3232,3232,3232,662,662,654,650,645,644,640,638,637,636,636,636,634,634,636,636,637,639,643,644,647,649,650,651,654,656,660,664,665,666,670,673,673,673,677,685,693,699,702,702,718,725,731,741,0,0,0,0,0,0,0,0,0,0,2905,2228,2228,2228,2228,2228,2228,2228,2228,2214,2214,2214,2186,2186,2186,2200,2186,2186,2186,2172,2172,2172,2145,2132,2132,2132,2132,2132,2132,2118,2093,2093,2093,2080,2080,2080,2068,2043,2031,2031,2031,2031,2019,2019,1996,1996,1996,1984,1973,1950,1950,1950,1950,1973,1897,1897,1886,1866,1866,1856,1856,1866,1886,1918,1918,1866,1866,1856,1856,1866,1856,1846,1846,1846,1836,1836,1836,1836,2186,2186,1846,1836,1826,1826
0,0,0,2930,2930,2955,2980,2980,3006,3033,3060,3087,3115,3143,3172,3232,3232,3263,3232,3232,3232,3232,3232,662,654,646,644,640,638,637,636,634,634,634,634,634,634,634,636,637,639,640,644,645,646,646,647,650,654,659,664,665,670,673,673,673,685,690,693,697,702,702,702,724,730,741,0,0,0,0,0,0,0,0,0,0,2228,2228,2228,2228,2228,2228,2228,2228,2228,2214,2214,2214,2186,2186,2186,2186,2172,2172,2158,2145,2145,2158,2158,2132,2132,2132,2132,2118,2118,2118,2093,2093,2080,2080,2080,2080,2055,2043,2031,2031,2031,2019,2019,2007,1984,1984,1984,1984,1973,1950,1939,1939,1939,1939,1897,1897,1886,1876,1866,1856,1856,1856,1876,1907,1886,1866,1856,1846,1846,1856,1846,1836,1836,1836,1836,1836,1836,1846,2172,2158,2118,1826,1817,1817
0,0,0,0,0,2980,2980,2980,3033,3033,3060,3087,3115,3143,3172,3232,3232,3232,3232,3232,3232,3232,3232,659,651,646,641,640,638,636,634,633,633,632,632,632,633,634,634,636,638,632,632,632,636,640,645,649,654,657,662,664,670,674,674,675,685,690,695,696,697,700,702,724,728,733,0,0,0,0,0,0,0,0,0,0,2228,2214,2214,2228,2228,2228,2214,2214,2200,2200,2200,2186,2172,2172,2172,2186,2172,2158,2145,2145,2145,2145,2132,2132,2132,2118,2118,2118,2118,2105,2080,2080,2080,2080,2080,2068,2055,2043,2031,2031,2019,2019,2019,2007,1984,1973,1973,1973,1973,1950,1939,1939,1929,1929,1897,1886,1876,1876,1866,1856,1856,1856,1876,1897,1886,1826,1826,1836,1846,1846,1836,1826,1826,1826,1836,1817,1817,1817,1817,1817,2118,1817,1817,1817
0,0,0,0,0,0,0,3060,3060,3060,3060,3087,3115,3143,3172,3172,3172,3202,3202,3202,3232,3232,3202,656,650,646,641,640,638,636,633,633,633,632,632,613,613,613,618,618,619,623,626,631,636,640,645,649,654,657,660,662,668,674,679,681,685,690,692,692,693,697,700,728,728,733,0,0,0,0,0,0,0,0,0,0,0,2214,2214,2214,2214,2214,2214,2214,2200,2200,2186,2186,2172,2172,2172,2172,2172,2158,2145,2145,2145,2145,2132,2118,2105,2105,2118,2105,2093,2093,2080,2080,2080,2080,2080,2043,2031,2031,2031,2031,2019,2019,2007,2007,1984,1973,1961,1950,1950,1950,1929,1929,1929,1929,1897,1886,1866,1866,1856,1856,1856,1856,1876,1886,1788,1788,1798,1826,1836,1826,1826,1826,1817,1817,1817,1817,1807,1807,1807,1798,1798,1817,1807,1807
0,0,0,0,0,0,0,3033,3033,3033,3060,3087,3115,3143,3172,3172,3172,3202,3202,3202,3202,3202,3202,656,650,645,641,640,638,636,633,633,633,633,633,611,611,612,612,615,617,621,626,631,636,640,645,649,652,655,657,660,662,674,677,679,682,689,692,692,692,692,693,728,728,728,0,0,0,0,0,0,0,0,0,0,0,2214,2214,2214,2214,2214,2200,2200,2200,2200,2186,2172,2172,2172,2172,2172,2172,2172,2145,2145,2145,2145,2132,2105,2105,2105,2118,2105,2093,2093,2080,2080,2080,2068,2068,2043,2031,2019,2019,2019,2019,2019,1996,1996,1984,1973,1961,1939,1939,1939,1929,1918,1918,1918,1886,1886,1866,1856,1856,1846,1846,1856,1856,1876,1788,1788,1798,1826,1826,1817,1817,1826,1817,1817,1817,1807,1807,1807,1807,1798,1798,1817,1788,1788
0,0,0,0,0,0,0,3006,3006,3006,3033,3060,3087,3115,3115,3143,3172,3172,3172,3172,3172,3172,3172,655,650,645,641,640,639,636,634,634,636,634,632,611,611,611,612,614,617,621,626,632,640,640,643,645,649,651,655,657,659,671,674,675,678,685,693,692,689,689,690,721,721,724,727,0,0,0,0,0,0,0,0,0,2272,2200,2200,2214,2200,2186,2186,2186,2200,2186,2186,2172,2172,2172,2158,2145,2145,2132,2132,2132,2132,2118,2118,2105,2093,2093,2093,2093,2093,2080,2080,2080,2055,2031,2031,2031,2031,2019,1996,1996,2007,2007,1996,1984,1973,1961,1950,1939,1939,1929,1918,1918,1918,1918,525,524,524,524,1846,1700,1692,1667,1667,1675,1675,1667,1667,1675,1826,1817,1817,1817,1807,1807,1807,1798,1779,1779,1788,1798,1798,1798,1788,1788
0,0,0,0,0,0,3033,3006,3006,3006,3033,3060,3087,3115,3115,3143,3143,3172,3172,3172,3172,3172,3143,655,650,645,643,640,639,638,637,637,637,634,632,612,611,611,612,614,617,637,637,637,639,639,641,644,646,650,652,656,657,660,670,674,675,685,693,686,686,686,689,719,719,722,727,0,0,0,0,0,0,0,0,0,2272,2186,2186,2186,2186,2186,2186,2172,2172,2172,2172,2172,2145,2145,2145,2132,2132,2132,2118,2118,2118,2118,2118,2105,2093,2093,2080,2080,2080,2068,2068,2068,2031,2031,2031,2007,1996,1996,1984,1984,1984,1973,1973,1973,1961,1950,1939,1939,1929,1918,1907,1897,1726,1717,524,523,523,523,1700,1692,1692,1667,1667,1675,1667,1667,1667,1675,1817,1826,1817,1807,1807,1788,1788,1798,1779,1779,1788,1788,1788,1779,1761,1761
0,0,0,0,0,0,3006,3006,3006,3006,3006,3060,3087,3087,3115,3143,3143,3172,3172,3172,3143,3143,3143,656,650,647,644,641,640,640,640,640,641,634,632,631,631,613,613,634,634,633,633,634,636,638,640,641,644,647,652,655,657,660,668,671,675,679,681,681,682,685,686,716,716,716,733,0,0,0,0,0,0,0,0,0,2214,2186,2186,2186,2186,2186,2172,2158,2158,2172,2172,2172,2132,2132,2132,2132,2118,2118,2105,2105,2093,2093,2093,2093,2093,2080,2068,2055,2055,2055,2043,2043,2031,2019,2019,2007,1996,1984,1984,1984,1984,1973,1973,1961,1950,1752,1752,1752,1743,1743,1734,1717,1717,1717,524,523,523,523,1692,1683,1683,1675,1675,1667,1667,1651,1643,1643,1817,1826,1817,1807,1807,1788,1788,1798,1779,1779,1788,1779,1770,1770,1761,1761
0,0,0,0,0,0,3006,3006,3006,3006,3006,3033,3087,3087,3115,3115,3143,3143,3143,3143,3143,3143,3143,656,654,649,644,639,639,640,643,644,644,644,634,634,632,631,631,631,631,631,631,632,633,636,638,640,644,645,650,654,656,657,665,669,674,675,677,679,681,682,685,715,716,716,733,0,0,0,0,0,0,0,0,0,2200,2186,2172,2172,2172,2186,2172,2158,2158,2158,2158,2158,2132,2118,2118,2118,2105,2105,2105,2105,2080,2080,2080,2068,2068,2080,2068,2043,2043,2043,2043,2031,2031,2019,2007,1807,1807,1788,1779,1779,1779,1779,1779,1779,1761,1752,1752,1752,1734,1734,1726,1717,1717,1717,1717,1708,1700,1692,1683,1683,1683,1675,1675,1667,1667,1651,1635,1635,1817,1817,1817,1807,1807,1807,1788,1779,1779,1779,1779,1779,1770,1770,1761,1761
0,0,0,0,0,0,0,3006,3006,3006,3006,3033,3087,3115,3115,3115,3143,3143,3143,3143,3115,3115,3115,656,655,643,640,638,638,639,643,643,644,641,637,634,631,630,630,630,630,630,630,631,632,633,636,639,641,644,647,651,655,657,662,669,673,674,675,677,678,681,685,715,716,716,0,0,0,0,0,0,0,0,0,0,2200,2186,2172,2172,2172,2172,2158,2158,2158,2158,2145,2145,2132,2118,2118,2093,2080,2080,2093,2093,2080,2068,2068,2055,2055,2043,2043,2043,2031,2031,2043,1836,1836,1817,1817,1807,1807,1788,1779,1779,1779,1779,1779,1770,1761,1752,1743,1743,1734,1734,1726,1726,1717,1708,1708,1708,1700,1692,1683,1683,1683,1675,1675,1667,1667,1651,1635,1635,1798,1807,1807,1807,1798,1788,1779,1779,1770,1770,1770,1779,1770,1770,1761,1761
0,0,0,0,0,0,0,2955,2955,3006,3006,3033,3060,3087,3087,3115,3143,3143,3143,3143,3115,3115,3115,3115,655,643,640,637,637,637,639,640,641,639,637,633,630,629,627,627,626,626,627,630,631,633,636,638,640,644,646,650,654,656,662,668,670,674,674,675,677,681,715,715,716,719,0,0,0,0,0,0,0,0,0,0,2214,2186,2172,2172,2172,2158,2145,2145,2145,2145,2145,2132,2132,2093,2093,2080,2068,2068,2093,2080,2080,2068,2068,1866,1866,2031,1836,1836,1846,1846,1836,1836,1826,1817,1807,1807,1788,1788,1788,1779,1779,1770,1761,1761,1761,1752,1743,1743,1734,1734,1734,1734,1717,1708,1708,1700,1700,1683,1675,1675,1683,1675,1675,1667,1659,1651,1635,1635,1798,1807,1807,1788,1779,1779,1779,1779,1770,1770,1761,1761,1779,1788,1807,1929
0,0,0,0,0,3006,2955,2955,2955,2980,3033,3033,3033,3060,3087,3115,3143,3115,3115,3115,3115,3115,3060,643,643,639,636,634,634,634,634,636,638,637,636,633,630,627,626,626,626,626,626,629,630,632,634,637,640,644,646,650,652,656,662,666,670,671,673,674,677,706,713,716,719,724,733,0,0,0,0,0,0,0,0,0,2214,2172,2172,2172,2158,2145,2145,2132,2132,2118,2118,2132,2080,2080,1907,1897,1886,1886,1886,1876,1866,1856,1856,1856,1856,1846,1836,1836,1836,1826,1826,1826,1826,1817,1807,1807,1788,1788,1779,1779,1770,1770,1761,1761,1743,1743,1743,1743,1743,1726,1726,1717,1717,1708,1700,1692,1692,1683,1675,1675,1675,1667,1667,1659,1659,1651,1635,1635,1643,1788,1788,1788,1779,1779,1770,1770,1770,1761,1752,1752,1761,1907,1918,1929
0,0,0,0,0,3006,2955,2955,2955,2980,3033,3033,3033,3060,3115,3115,3115,3087,3087,3087,3115,3115,3060,643,643,636,631,631,631,632,633,634,636,636,636,632,630,626,626,626,626,626,626,627,630,631,633,636,639,641,645,649,652,655,661,666,670,671,673,674,696,703,712,715,719,725,733,0,0,0,0,0,0,0,0,0,1973,1950,1950,2172,2158,2145,2145,2132,2132,1897,1897,1907,1897,1897,1907,1897,1886,1886,1886,1876,1866,1856,1856,1856,1856,1846,1836,1836,1836,1826,1817,1817,1817,1807,1807,1807,1798,1788,1779,1779,1770,1770,1761,1761,1743,1743,1734,1734,1734,1726,1726,1708,1708,1708,1692,1683,1683,1692,1675,1675,1675,1667,1667,1651,1651,1643,1628,1628,1628,1779,1779,1779,1779,1770,1761,1761,1761,1752,1752,1752,1761,1807,1817,1826
0,0,0,0,0,3006,2955,2955,2955,2980,3006,3006,3033,3060,3087,3087,3087,3087,3087,3087,3087,3115,3115,3115,636,636,627,627,627,629,631,632,633,634,633,631,629,626,626,626,625,625,626,626,629,631,633,636,638,641,644,646,651,655,659,666,671,678,686,690,695,700,709,713,715,725,733,0,0,0,0,0,0,0,0,1961,1950,1950,1950,1950,1929,1929,1929,1929,1929,1897,1897,1907,1897,1897,1897,1886,1876,1876,1876,1876,1876,1866,1856,1856,1856,1846,1836,1836,1836,1826,1817,1807,1807,1807,1798,1788,1779,1779,1779,1779,1770,1761,1752,1752,1752,1743,1726,1726,1726,1726,1717,1708,1708,1700,1675,1675,1683,1683,1675,1675,1667,1667,1659,1651,1651,1628,1620,1605,1605,1779,1779,1779,1779,1770,1752,1752,1752,1752,1752,1752,1770,1807,1817,1817
0,0,0,2905,2905,2905,2905,2930,2930,2980,3006,3006,3033,3060,3060,3060,3087,3087,3087,3060,3033,3033,3033,618,624,624,624,624,625,626,627,630,631,633,632,630,627,626,625,625,625,625,626,626,627,630,632,634,636,640,644,645,649,654,657,665,670,679,685,688,692,700,706,710,713,727,731,731,0,0,0,0,0,0,1939,1939,1950,1950,1950,1950,1929,1929,1929,1929,1929,1918,1918,1907,1897,1897,1886,1886,1876,1876,1876,1876,1876,1866,1856,1846,1846,1846,1836,1826,1826,1817,1807,1807,1807,1798,1788,1788,1779,1770,1770,1761,1752,1752,1752,1743,1743,1734,1726,1726,1726,1708,1708,1700,1692,1692,1675,1675,1683,1683,1667,1667,1667,1667,1659,1651,1643,1620,1612,1605,1605,1779,1779,1779,1779,1761,1752,1743,1743,1743,1752,1752,1779,1817,1817,1817
0,0,0,2905,2905,2905,2905,2930,2930,2980,3006,3006,3033,3060,3060,3060,3087,3087,3060,3060,3006,3006,3006,618,618,618,618,619,621,623,624,624,629,632,631,629,626,625,625,624,624,624,625,626,627,630,631,634,636,639,643,645,649,651,656,665,670,677,682,686,690,700,705,709,713,730,731,731,0,0,0,0,0,0,1939,1939,1950,1950,1950,1939,1939,1929,1929,1929,1929,1918,1907,1907,1897,1897,1886,1876,1876,1866,1866,1866,1866,1856,1846,1836,1836,1836,1826,1817,1817,1817,1798,1798,1798,1788,1788,1788,1779,1770,1770,1752,1743,1743,1743,1743,1743,1734,1726,1726,1717,1708,1708,1700,1692,1692,1683,1675,1675,1675,1667,1667,1659,1651,1651,1643,1643,1620,1612,1612,1612,1761,1770,1770,1770,1761,1743,1743,1743,1743,1743,1743,1761,1807,1807,1807
0,0,0,2905,2905,2905,2905,2930,2930,2980,3006,3006,3033,3033,3033,3033,3033,3060,3033,3033,3006,3006,3006,3006,616,616,616,617,618,618,621,621,622,626,630,627,626,624,623,623,623,624,625,625,626,629,631,634,636,638,643,645,649,651,656,662,669,674,681,685,689,696,703,709,719,730,733,0,0,0,0,0,0,0,1950,1950,1961,1950,1950,1939,1939,1939,1929,1929,1929,1918,1907,1907,1897,1897,1886,1876,1876,1866,1866,1866,1856,1846,1846,1826,1826,1826,1817,1807,1807,1807,1798,1798,1798,1788,1779,1779,1770,1770,1770,1752,1743,1743,1734,1734,1743,1726,1717,1708,1708,1708,1708,1700,1692,1692,1683,1675,1675,1675,1667,1667,1659,1651,1651,1643,1635,1620,1612,1605,1605,1743,1761,1770,1752,1752,1734,1734,1734,1734,1734,1734,1743,1807,1807,1807
0,0,0,2905,2905,2905,2905,2905,2930,2980,3006,3006,3006,3006,3033,3033,3033,3060,3033,3006,3006,3006,3006,3033,615,614,614,614,616,617,619,621,622,626,626,626,625,624,622,622,622,623,624,625,626,629,631,634,636,638,641,644,647,651,655,661,668,673,678,684,688,693,702,710,719,722,0,0,0,0,0,0,0,1907,1907,1961,1950,1939,1939,1939,1939,1939,1929,1929,1918,1907,1907,1907,1897,1897,1886,1876,1876,1866,1856,1856,1856,1846,1836,1826,1826,1826,1807,1807,1798,1798,1798,1788,1788,1779,1770,1770,1761,1761,1761,1752,1743,1734,1734,1734,1726,1726,1708,1708,1708,1708,1700,1700,1675,1675,1675,1675,1667,1659,1659,1659,1643,1635,1635,1635,1628,1612,1605,1597,1597,1597,1743,1752,1734,1734,1734,1734,1734,1734,1726,1726,1726,1779,1798,1807
0,0,0,2857,2857,2881,2881,2905,2930,2930,2980,2980,2980,3006,3033,3033,3033,3033,3006,3006,3006,3006,3006,3006,615,614,614,614,616,617,619,621,623,626,625,625,624,622,622,622,622,623,623,625,626,630,632,633,634,638,640,643,646,650,655,660,668,673,678,682,686,692,699,710,721,722,0,0,0,0,0,0,1918,1907,1907,1939,1939,1939,1939,1939,1939,1929,1918,1918,1918,1907,1897,1897,1897,1897,1886,1876,1866,1856,1856,1856,1846,1826,1826,1826,1826,1826,1807,1798,1788,1788,1770,1770,1770,1770,1761,1752,1752,1752,1752,1743,1743,1726,1726,1726,1717,1717,1708,1700,1692,1692,1683,1683,1675,1675,1675,1659,1659,1659,1643,1643,1635,1635,1620,1620,1612,1605,1605,1597,1583,1583,1743,1743,1734,1734,1734,1726,1726,1717,1717,1717,1717,1743,1798,1807
0,0,0,2833,2833,2857,2881,2905,2905,2930,2980,2955,2955,2955,3006,3006,3006,3006,3006,3006,3006,3006,3006,2980,615,614,614,615,617,619,622,623,623,623,622,622,621,621,621,621,622,622,623,625,626,630,631,633,634,637,640,643,646,650,656,660,666,671,675,679,685,690,696,705,721,0,0,0,0,0,0,0,1918,1918,1918,1939,1939,1939,1939,1939,1929,1929,1907,1907,1907,1897,1886,1886,1886,1886,1886,1866,1846,1846,1846,1856,1826,1826,1817,1807,1807,1817,1807,1779,1779,1779,1770,1770,1770,1761,1761,1752,1752,1752,1743,1743,1734,1726,1717,1717,1717,1708,1692,1692,1692,1692,1683,1667,1667,1675,1659,1659,1659,1659,1643,1643,1635,1635,1620,1612,1605,1605,1605,1597,1575,1575,1743,1743,1743,1734,1734,1726,1717,1708,1708,1717,1717,1726,1798,1807
0,0,0,2833,2833,2833,2881,2881,2905,2930,2980,2930,2930,2955,3006,3006,3006,3006,3006,3006,3006,3006,3006,2980,616,616,616,617,622,622,622,622,621,618,618,619,618,618,618,619,621,622,623,625,627,629,630,632,634,637,639,643,646,650,655,660,666,670,674,678,684,688,695,702,710,0,0,0,0,0,0,0,0,1929,1929,1939,1929,1929,1929,1929,1929,1929,1907,1907,1897,1897,1886,1886,1886,1886,1886,1856,1846,1846,1846,1836,1826,1826,1817,1807,1807,1807,1798,1779,1779,1779,1770,1761,1761,1752,1752,1752,1752,1752,1734,1734,1734,1717,1717,1717,1717,1708,1692,1692,1692,1692,1683,1667,1667,1667,1659,1659,1659,1659,1643,1643,1635,1628,1620,1612,1605,1605,1597,1597,1575,1575,1612,1734,1743,1734,1708,1708,1708,1708,1708,1708,1717,1717,1779,1779
0,0,0,2833,2833,2833,2881,2881,2905,2930,2930,2930,2930,2930,2980,3006,3006,3006,3006,3006,3006,3006,3006,2980,2980,621,621,623,623,618,618,618,618,617,617,617,617,617,617,619,621,621,622,624,626,627,630,632,634,636,639,643,646,650,655,661,666,670,674,678,681,685,692,700,705,0,0,0,0,0,0,0,0,1939,1929,1929,1929,1929,1929,1918,1918,1929,1907,1897,1897,1886,1886,1876,1876,1876,1856,1846,1846,1836,1836,1826,1826,1826,1807,1807,1798,1798,1788,1779,1779,1779,1770,1761,1761,1752,1752,1743,1734,1734,1734,1734,1734,1717,1717,1700,1700,1700,1692,1692,1683,1675,1675,1667,1667,1651,1651,1643,1643,1643,1643,1635,1628,1628,1620,1612,1605,1605,1597,1597,1597,1597,1597,1734,1743,1726,1708,1708,1708,1708,1708,1700,1700,1708,1779,1779
0,0,0,2857,2857,2881,2881,2905,2905,2930,2930,2930,2930,2930,2980,3006,3006,2980,2980,3006,3006,2980,2980,2980,2980,2980,626,625,622,618,618,618,618,617,617,617,617,617,617,618,619,621,622,622,624,626,627,630,633,636,639,643,646,651,655,660,665,670,671,675,679,684,688,696,703,0,0,0,0,0,0,0,0,1929,1929,1929,1929,1929,1918,1918,1918,1907,1897,1897,1897,1886,1876,1866,1866,1876,1856,1846,1846,1836,1826,1826,1817,1807,1807,1798,1798,1798,1779,1770,1770,1779,1770,1770,1761,1743,1743,1734,1717,1717,1726,1734,1734,1726,1717,1700,1692,1692,1692,1675,1675,1667,1667,1667,1667,1651,1651,1643,1643,1635,1635,1628,1620,1612,1612,1605,1605,1597,1597,1597,1590,1583,1583,1734,1734,1717,1708,1708,1708,1708,1700,1700,1700,1708,1761,1779
0,0,0,2857,2857,2857,2857,2881,2905,2930,2930,2930,2930,2955,2955,3006,2955,2955,2980,2980,2980,2980,2955,2955,2980,2955,2930,626,622,618,618,618,619,618,618,618,618,618,618,618,619,621,621,622,624,626,627,630,633,636,639,643,647,651,655,660,665,669,670,674,678,681,686,693,700,0,0,0,0,0,0,0,0,1929,1929,1929,1929,1907,1897,1897,1907,1897,1886,1886,1886,1876,1866,1866,1866,1866,1856,1846,1846,1836,1826,1817,1817,1807,1798,1798,1798,1788,1779,1770,1770,1770,1761,1761,1752,1734,1734,1734,1717,1717,1717,1717,1717,1717,1717,1700,1692,1692,1683,1675,1675,1667,1667,1667,1659,1659,1651,1643,1635,1635,1635,1628,1612,1612,1605,1597,1597,1590,1590,1583,1583,1583,1583,1717,1734,1717,1708,1700,1700,1700,1700,1692,1692,1708,1743,1779
0,0,0,2833,2833,2857,2857,2881,2905,2930,2905,2905,2930,2930,2955,2980,2955,2955,2980,2980,2955,2955,2930,2930,2955,2930,2930,627,622,621,621,619,618,617,617,618,618,618,618,618,619,621,621,622,624,626,627,630,633,636,639,644,647,651,656,661,665,668,669,671,675,678,682,689,697,702,0,0,0,0,0,0,0,1939,1929,1929,1918,1907,1897,1897,1897,1897,1886,1876,1876,1876,1866,1856,1856,1856,1846,1826,1826,1826,1817,1817,1817,1807,1798,1798,1798,1779,1779,1779,1761,1752,1752,1752,1752,1734,1726,1726,1726,1717,1717,1717,1708,1708,1675,1675,1692,1675,1675,1675,1675,1667,1659,1651,1643,1643,1643,1620,1620,1628,1635,1620,1612,1605,1605,1597,1597,1583,1583,1583,1575,1575,1583,1708,1726,1717,1708,1700,1692,1692,1692,1692,1692,1700,1717,1770
0,0,0,2810,2810,2857,2857,2881,2905,2905,2905,2905,2905,2930,2955,2980,2980,2955,2955,2930,2930,2955,2930,2930,2930,2930,2905,631,630,623,622,618,617,617,617,618,618,619,619,619,619,621,621,622,625,626,629,631,634,636,640,644,647,652,657,661,664,666,669,670,673,675,679,685,690,697,0,0,0,0,0,0,0,0,1918,1918,1907,1907,1907,1907,1886,1886,1876,1856,1856,1856,1866,1856,1856,1846,1846,1826,1817,1817,1817,1817,1807,1807,1807,1807,1788,1779,1779,1779,1752,1743,1743,1743,1743,1734,1726,1717,1717,1717,1708,1708,1700,1692,1675,1675,1683,1675,1675,1667,1667,1667,1659,1651,1643,1643,1635,1620,1620,1628,1628,1612,1605,1597,1597,1590,1590,1583,1575,1575,1575,1575,1583,1700,1717,1708,1700,1700,1683,1675,1675,1683,1692,1692,1708,1761
0,0,0,2810,2810,2857,2857,2881,2905,2905,2905,2905,2905,2930,2955,2955,2930,2930,2930,2930,2930,2930,2930,2930,2930,2930,2905,2905,643,625,622,618,617,617,617,618,619,621,621,621,621,622,622,623,625,627,630,632,634,637,640,645,650,655,660,662,664,665,668,669,670,674,678,682,688,693,0,0,0,0,0,0,0,0,1918,1918,1907,1907,1907,1897,1876,1876,1876,1856,1856,1856,1846,1846,1846,1826,1826,1826,1817,1817,1817,1798,1798,1798,1788,1779,1779,1770,1770,1770,1752,1743,1743,1743,1743,1743,1726,1708,1708,1708,1708,1708,1700,1692,1683,1683,1683,1675,1667,1667,1667,1667,1659,1651,1643,1635,1628,1620,1620,1628,1612,1612,1597,1590,1590,1583,1583,1583,1575,1575,1568,1561,1561,1700,1708,1708,1700,1700,1675,1675,1675,1683,1683,1683,1692,1726
0,0,0,2833,2833,2833,2857,2881,2881,2905,2881,2881,2905,2930,2930,2955,2930,2930,2905,2905,2905,2905,2930,2905,2905,2905,2905,2905,2905,625,623,619,618,618,618,619,619,621,621,621,621,622,622,624,626,629,631,633,636,639,641,650,654,657,660,661,664,664,666,669,669,673,677,679,685,690,651,651,660,0,0,0,0,0,595,595,1907,1907,1907,1856,1856,1866,1866,1856,1856,1836,1826,1826,1836,1826,1817,1817,1817,1807,1807,1798,1779,1779,1779,1779,1770,1770,1770,1761,1752,1752,1743,1743,1743,1743,1726,1708,1708,1708,1708,1708,1700,1683,1675,1667,1667,1667,1659,1659,1659,1659,1659,1643,1635,1635,1628,1620,1620,1612,1605,1605,1597,1590,1590,1583,1583,1575,1568,1568,1561,1554,1554,1708,1700,1700,1700,1675,1675,1675,1675,1683,1675,1675,1683,1717
0,0,0,2810,2787,2787,2810,2881,2881,2881,2881,2881,2905,2930,2930,2930,2905,2905,2905,2905,2905,2905,2930,2905,2905,2905,2905,2905,2905,626,624,623,618,617,617,618,618,619,619,619,621,622,623,625,626,630,631,634,636,639,646,651,655,659,660,660,661,664,665,668,669,670,674,677,679,654,649,649,650,0,0,0,0,0,0,595,595,593,1856,1856,1856,1866,1856,1856,1846,1826,1826,1826,1836,1826,1817,1817,1807,1788,1779,1779,1779,1779,1779,1770,1770,1761,1752,1752,1752,1743,1734,1734,1726,1726,1708,1700,1700,1700,1700,1700,1692,1683,1675,1667,1667,1659,1659,1651,1651,1651,1635,1635,1635,1628,1628,1612,1605,1605,1605,1597,1590,1590,1583,1575,1575,1575,1561,1561,1561,1547,1547,1547,1700,1700,1692,1675,1675,1675,1675,1675,1667,1667,1675,1708
0,0,0,2765,2765,2787,2810,2857,2881,2857,2857,2857,2905,2930,2930,2930,2905,2905,2905,2905,2905,2905,2905,2905,2905,2905,2905,2857,2857,626,623,619,617,616,616,616,616,617,618,618,619,621,622,625,626,630,632,634,637,645,650,655,659,660,660,660,660,662,664,665,666,669,671,674,640,638,638,638,639,621,621,0,0,0,587,595,595,593,593,1866,1866,1876,1856,1846,1826,1826,1826,1826,1826,1817,1817,1817,1798,1779,1779,1770,1770,1770,1770,1770,1770,1761,1752,1752,1743,1734,1726,1726,1717,1708,1700,1700,1700,1700,1692,1692,1692,1675,1675,1667,1667,1651,1651,1651,1643,1643,1635,1635,1628,1628,1620,1605,1605,1605,1605,1597,1590,1590,1583,1575,1575,1575,1561,1561,1554,1540,1533,1533,1700,1692,1692,1675,1675,1675,1675,1675,1667,1667,1675,1708
0,0,0,2743,2743,2787,2810,2810,2833,2857,2857,2857,2905,2930,2930,2930,2905,2905,2905,2905,2905,2881,2881,2881,2881,2905,2881,2857,2857,2857,623,619,617,616,616,615,615,616,617,618,619,621,622,625,626,631,633,637,644,645,655,659,659,659,659,659,660,661,662,664,665,668,670,671,632,627,627,632,634,621,621,622,622,587,587,588,591,592,593,587,587,1886,1876,1846,1826,1826,1826,1826,1826,1817,1817,1798,1770,1770,1770,1770,1770,1770,1770,1761,1761,1761,1743,1734,1734,1734,1726,1726,1708,1708,1700,1700,1700,1700,1683,1683,1675,1667,1667,1667,1659,1643,1643,1643,1635,1635,1635,1628,1620,1620,1612,1597,1597,1597,1597,1590,1590,1583,1568,1568,1568,1561,1554,1554,1547,1540,1533,1533,1675,1692,1683,1675,1667,1667,1667,1667,1667,1667,1667,1683
0,0,0,2721,2721,2810,2810,2810,2833,2857,2857,2881,2881,2930,2905,2905,2905,2905,2905,2905,2881,2881,2881,2857,2857,2857,2881,2857,2857,2857,623,619,617,616,615,614,614,615,616,617,619,621,623,626,630,632,636,643,646,651,659,659,657,657,657,657,659,659,660,661,662,662,664,665,622,622,615,615,617,621,622,622,582,582,583,584,584,585,588,586,586,587,587,1826,1826,1826,1846,1846,1846,1817,1817,1779,1770,1770,1770,1770,1770,1761,1761,1752,1752,1752,1743,1726,1726,1726,1726,1717,1708,1708,1700,1700,1692,1692,1675,1675,1667,1659,1659,1659,1651,1643,1643,1635,1635,1628,1620,1612,1612,1612,1612,1597,1597,1597,1583,1583,1583,1575,1568,1568,1568,1554,1547,1547,1547,1540,1527,1527,1667,1683,1675,1675,1667,1659,1659,1659,1659,1659,1667,1667
0,0,0,2721,2721,2810,2810,2810,2833,2857,2857,2857,2857,2881,2905,2905,2905,2905,2905,2905,2881,2881,2881,2857,2857,2857,2881,2857,2857,2833,623,621,617,616,615,614,614,615,616,617,621,622,625,630,632,633,637,650,651,659,659,659,656,655,655,656,657,654,654,655,655,657,660,614,610,610,610,610,610,618,618,572,572,573,576,576,576,580,580,580,581,583,585,587,587,596,596,596,0,0,0,1779,1770,1770,1770,1770,1752,1752,1752,1743,1743,1752,1734,1717,1717,1717,1708,1708,1708,1708,1700,1692,1692,1675,1667,1667,1667,1659,1651,1643,1643,1643,1635,1635,1628,1628,1620,1612,1612,1612,1605,1597,1590,1583,1583,1583,1575,1575,1568,1561,1561,1554,1547,1547,1547,1540,1527,1527,1533,1683,1675,1675,1667,1659,1659,1659,1651,1651,1651,1659
0,0,0,2743,2743,2787,2787,2810,2833,2833,2833,2857,2857,2881,2905,2905,2881,2881,2881,2881,2881,2857,2857,2857,2857,2857,2833,2833,2833,2833,623,621,618,616,615,615,615,616,617,619,622,625,629,631,632,634,639,660,660,659,657,657,656,654,651,646,646,646,649,651,654,654,656,609,604,600,595,595,607,618,568,568,568,568,568,571,572,572,573,575,579,581,584,587,591,596,596,0,0,0,0,0,0,0,1779,1770,1752,1752,1743,1734,1734,1734,1726,1717,1717,1717,1700,1700,1708,1708,1700,1683,1683,1667,1667,1667,1667,1651,1643,1643,1643,1635,1635,1635,1612,1612,1620,1612,1612,1605,1597,1583,1583,1583,1583,1583,1575,1575,1568,1561,1554,1554,1547,1547,1547,1527,1527,1527,1533,1675,1659,1659,1659,1659,1651,1643,1643,1643,1651,1651
0,0,0,2765,2765,2787,2787,2810,2810,2810,2833,2833,2857,2881,2905,2905,2857,2857,2881,2881,2857,2833,2833,2833,2833,2833,2833,2833,2833,2810,2810,621,619,619,618,617,617,617,618,619,623,626,631,631,633,634,664,661,660,657,657,657,640,640,640,643,644,644,645,647,649,523,523,601,598,594,589,588,588,565,565,565,565,565,565,566,568,569,571,572,573,580,584,588,591,596,599,599,609,0,0,0,0,0,0,1770,1752,1743,1734,1734,1726,1726,1726,1726,1717,1708,1700,1700,1708,1700,1683,1675,1667,1667,1667,1667,1659,1643,1643,1643,1635,1635,1635,1628,1612,1612,1612,1620,1597,1597,1597,1583,1583,1583,1583,1575,1568,1568,1568,1568,1554,1547,1547,1547,1533,1520,1520,1520,1527,1659,1659,1659,1659,1643,1635,1635,1643,1643,1643,1643
0,0,0,2743,2743,2787,2787,2810,2787,2787,2787,2810,2881,2905,2905,2881,2857,2857,2857,2857,2833,2833,2833,2833,2833,2833,2833,2833,2833,2810,2810,2810,623,623,622,619,617,617,621,622,625,630,632,632,671,669,665,661,660,640,639,639,639,639,639,640,640,640,641,525,523,521,521,521,589,587,585,583,559,559,560,560,560,561,562,564,565,566,566,566,566,567,568,568,570,573,599,603,609,0,0,0,0,0,0,0,0,1743,1726,1726,1726,1726,1717,1717,1700,1692,1692,1692,1692,1667,1667,1675,1667,1659,1659,1659,1659,1643,1643,1643,1635,1635,1628,1620,1612,1612,1612,1612,1597,1590,1590,1590,1583,1583,1583,1568,1568,1561,1554,1554,1547,1540,1540,1533,1520,1520,1520,1520,1520,1659,1659,1659,1651,1643,1635,1635,1643,1635,1635,1635
0,0,0,2721,2721,2787,2810,2810,2787,2743,2743,2765,2881,2881,2833,2833,2857,2881,2833,2833,2833,2810,2810,2833,2810,2810,2810,2810,2810,2810,2810,2810,625,625,625,625,625,623,622,622,744,744,754,681,675,670,665,640,640,639,639,639,637,637,637,637,638,638,522,522,522,519,519,519,584,583,577,556,556,556,556,556,557,559,561,560,558,558,561,561,561,560,560,562,564,572,599,603,609,0,0,0,0,0,0,0,0,0,1726,1717,1717,1708,1708,1708,1700,1692,1683,1683,1675,1667,1667,1667,1667,1651,1651,1651,1651,1643,1635,1635,1635,1628,1628,1612,1612,1612,1605,1605,1590,1590,1583,1583,1583,1575,1575,1561,1561,1561,1547,1547,1547,1533,1533,1527,1520,1520,1520,1520,1520,1659,1659,1651,1643,1643,1643,1635,1635,1635,1635,1635
0,0,0,2721,2721,2485,2485,2485,2485,2485,2468,2416,2416,2433,2450,2833,2857,2881,2833,2833,2833,2810,2810,2810,2810,2810,2787,2787,2787,2787,2787,2787,2787,2787,2787,773,773,776,624,622,622,751,754,681,650,645,643,640,640,639,637,634,633,633,633,634,636,520,520,520,517,517,517,517,579,579,555,554,554,554,554,554,556,558,557,556,555,555,555,554,553,552,552,557,560,561,604,605,610,0,0,0,0,0,0,0,0,0,0,1717,1717,1708,1708,1708,1700,1692,1683,1683,1675,1667,1667,1667,1659,1651,1651,1651,1643,1635,1635,1635,1635,1628,1620,1612,1612,1612,1605,1597,1590,1583,1575,1575,1575,1575,1561,1561,1561,1554,1547,1547,1547,1533,1533,1527,1520,1520,1513,1513,1513,1651,1651,1651,1643,1643,1643,1635,1628,1628,1635,1635
0,0,0,2503,2503,2485,2485,2468,2450,2450,2450,2416,2416,2433,2450,2503,2881,2881,2810,2810,2810,2810,2810,2810,2787,2787,2787,2787,2787,2787,2787,2787,2765,762,762,766,743,743,617,617,618,650,650,650,649,644,641,639,637,636,634,632,632,631,631,633,634,520,520,519,515,515,515,515,550,550,550,550,550,550,551,552,556,553,551,551,551,553,554,552,549,548,548,549,555,555,556,558,0,0,0,0,0,0,0,0,0,0,0,0,1717,1708,1708,1700,1700,1692,1683,1683,1675,1675,1667,1667,1659,1643,1643,1651,1643,1635,1635,1635,1628,1620,1612,1612,1605,1597,1597,1590,1590,1583,1575,1575,1568,1561,1554,1554,1554,1554,1547,1547,1540,1527,1527,1520,1520,1507,1500,1500,1500,1643,1643,1643,1643,1635,1628,1628,1628,1628,1635,1635
0,0,0,2468,2468,2468,2468,2468,2450,2416,2416,2416,2433,2433,2468,2503,2503,2810,2810,2810,2787,2787,2810,2810,2787,2787,2787,2787,2787,2787,2743,2743,752,752,757,741,741,741,617,617,618,650,650,650,645,641,638,636,634,634,632,631,631,631,631,616,520,520,520,516,514,514,514,514,549,547,547,547,547,547,550,552,550,548,547,547,547,549,547,544,542,541,541,542,546,550,553,554,555,0,0,0,0,0,690,690,0,0,0,0,0,0,1717,1700,1675,1675,1675,1683,1675,1667,1667,1659,1659,1643,1643,1643,1635,1635,1635,1628,1628,1620,1612,1612,1597,1590,1590,1590,1583,1583,1575,1575,1561,1561,1554,1554,1554,1554,1547,1547,1540,1527,1513,1513,1513,1493,1493,1493,1493,1643,1643,1643,1643,1635,1620,1620,1620,1628,1628,1628
0,0,0,2468,2468,2468,2450,2450,2468,2416,2416,2416,2416,2416,2485,2485,2485,2810,2810,2810,2787,2787,2787,2810,2787,2787,2787,2787,2787,2787,725,725,731,749,741,739,739,741,738,659,659,650,650,649,641,639,636,634,633,631,630,617,617,615,614,613,519,519,519,512,512,512,512,514,541,541,541,544,546,547,548,549,547,544,544,544,546,546,544,539,537,537,538,539,540,540,549,549,549,549,0,0,0,679,679,679,679,0,0,0,0,0,0,0,1675,1675,1675,1675,1675,1667,1651,1651,1659,1651,1643,1635,1628,1628,1620,1620,1620,1620,1612,1605,1597,1590,1583,1583,1575,1575,1575,1568,1554,1554,1554,1554,1554,1540,1540,1540,1540,1527,1513,1507,1507,1493,1493,1487,1456,1456,1635,1635,1635,1628,1620,1620,1620,1628,1620,1620
0,0,0,2485,2485,2468,2433,2433,2450,2416,2416,2416,2416,2416,0,2416,0,2787,0,2787,2787,2787,2787,2787,2787,2787,2787,2787,2765,2700,725,725,731,739,738,738,738,741,654,649,641,641,641,644,640,638,634,627,624,622,618,616,614,613,612,612,519,518,510,510,510,511,511,514,538,538,540,541,544,547,548,543,541,540,540,541,542,543,536,535,533,533,533,531,530,530,536,537,545,545,545,0,675,675,675,675,675,675,0,0,0,0,0,0,0,1683,1675,1667,1667,1667,1651,1651,1651,1651,1635,1635,1620,1620,1620,1620,1612,1605,1605,1597,1590,1583,1575,1575,1575,1575,1568,1561,1554,1547,1547,1547,1547,1533,1527,1527,1520,1520,1513,1507,1507,1500,1493,1487,1456,1456,1635,1628,1628,1620,1620,1620,1620,1628,1620,1620
0,0,2468,2450,2450,2450,2433,2433,2433,2433,2433,2433,2416,2416,0,0,0,0,0,2787,2787,2787,2765,2765,2743,2743,2743,2765,2743,719,719,722,731,735,735,736,738,738,650,646,638,623,622,607,607,631,624,622,621,618,615,613,612,611,610,609,517,509,509,509,509,510,511,534,534,534,536,541,542,547,541,541,538,537,537,539,540,540,533,530,530,529,527,527,527,528,528,536,540,541,542,543,543,675,665,665,666,668,670,0,0,0,0,0,0,0,0,1667,1667,1667,1651,1643,1643,1635,1620,1620,1620,1612,1612,1620,1612,1590,1590,1583,1575,1575,1575,1575,1575,1575,1561,1554,1547,1547,1540,1540,1540,1533,1527,1520,1520,1507,1507,1500,1500,1500,1500,1487,1474,1474,1635,1620,1620,1620,1612,1612,1620,1620,1620,1620
0,0,2433,2416,2416,2433,2450,2450,2416,2416,2416,2416,2416,2416,0,0,0,0,0,2700,2700,2765,2765,2765,2743,2743,2743,2765,2700,715,715,718,731,733,733,736,738,738,650,646,638,621,610,605,605,623,622,618,616,615,613,612,610,609,607,517,514,509,508,508,508,509,531,531,531,531,533,540,540,547,541,536,535,535,536,536,538,529,528,527,526,522,521,520,520,521,522,536,539,540,540,541,541,541,662,659,659,660,661,661,664,665,0,0,0,0,0,0,1667,1643,1643,1643,1643,1628,1620,1620,1612,1612,1612,1612,1590,1583,1583,1575,1575,1575,1575,1575,1575,1568,1561,1554,1547,1540,1533,1533,1533,1527,1527,1520,1520,1507,1500,1500,1493,1493,1493,1493,1487,1487,1628,1620,1620,1620,1612,1612,1620,1620,1620,1620
0,0,2433,2416,2416,2416,2433,2416,2416,2416,2416,2416,2416,2416,0,0,0,0,0,2700,2700,2743,2743,2743,2765,2743,2743,2721,709,709,713,718,728,730,731,731,735,739,650,650,654,612,605,602,592,592,592,592,614,611,609,605,604,602,601,514,509,508,508,508,508,509,529,528,528,529,533,538,540,550,540,532,531,531,532,535,535,529,526,523,517,516,516,517,518,518,518,531,534,536,536,536,539,539,662,655,654,654,655,659,664,664,0,0,0,0,0,0,0,1643,1628,1628,1635,1628,1620,1620,1605,1597,1597,1605,1590,1583,1583,1575,1575,1575,1568,1561,1561,1561,1554,1547,1540,1533,1527,1527,1527,1520,1520,1520,1520,1507,1500,1493,1493,1493,1487,1474,1474,1474,1612,1612,1612,1620,1612,1612,1612,1612,1612,1612
0,0,2450,2399,2399,2399,2416,2416,2416,2416,2416,2416,2416,2416,0,0,0,0,0,2743,2743,2743,2743,2721,2721,2743,2721,703,703,709,713,721,725,727,727,665,664,651,649,640,638,587,587,598,590,587,584,584,609,606,603,602,600,599,514,512,508,507,507,508,508,528,527,526,526,527,533,538,550,539,539,528,528,529,529,532,532,526,521,515,514,514,514,515,514,514,515,529,529,532,533,534,536,538,540,655,650,650,650,651,664,664,0,0,0,0,0,0,0,0,1628,1628,1628,1620,1620,1612,1605,1590,1590,1590,1597,1590,1583,1575,1575,1575,1568,1561,1554,1554,1540,1540,1533,1533,1527,1520,1520,1520,1513,1513,1513,1507,1493,1493,1493,1493,1481,1468,1468,1462,1462,1612,1612,1612,1612,1612,1605,1597,1597,1612
0,0,2433,2399,2399,2399,2416,2416,2399,2399,2399,2399,2416,2416,0,0,0,0,0,2787,2787,2743,2743,2721,2721,2743,705,703,703,710,721,724,724,724,655,655,656,644,639,636,630,587,587,589,586,582,574,574,575,575,597,592,590,590,514,508,507,507,507,508,527,526,524,523,523,523,539,546,548,539,537,526,526,527,528,530,526,521,514,512,512,511,511,511,508,508,508,509,528,529,531,532,533,536,536,655,645,645,645,647,649,0,0,0,0,0,0,0,0,0,1635,1628,1620,1620,1612,1612,1605,1590,1590,1590,1590,1590,1583,1575,1575,1575,1568,1561,1554,1540,1540,1533,1533,1527,1527,1520,1513,1513,1513,1507,1507,1500,1487,1481,1481,1487,1481,1468,1468,1449,1449,1612,1612,1605,1605,1605,1605,1597,1597,1612
0,0,2416,2416,2416,2416,2416,2416,2399,2382,2382,2399,2399,2416,0,0,0,0,0,2765,2743,2743,2743,2721,2721,705,705,705,712,719,719,719,721,649,646,644,639,636,633,625,619,588,584,583,583,576,571,569,568,567,567,590,586,586,508,507,507,507,507,527,526,523,522,521,520,520,541,543,546,537,523,523,523,524,526,527,521,519,511,509,509,509,509,508,506,506,506,507,524,524,524,527,529,531,533,536,645,639,639,640,641,0,0,0,0,0,0,0,0,0,1635,1612,1612,1612,1612,1597,1597,1590,1590,1583,1583,1583,1575,1575,1568,1568,1554,1554,1554,1540,1540,1533,1527,1520,1520,1520,1513,1513,1507,1507,1500,1500,1487,1481,1481,1487,1481,1468,1468,1449,1449,1612,1612,1605,1605,1605,1605,1597,1597,1597
0,0,2416,2416,2416,2416,2416,2416,2399,2382,2382,2399,2399,0,0,0,0,0,0,2743,2743,2721,2721,2721,2721,702,702,706,712,718,718,719,719,647,643,630,630,625,616,615,613,607,584,583,583,572,568,565,565,561,560,558,508,508,508,507,507,507,508,523,523,520,519,519,519,519,539,541,537,536,521,521,522,523,524,525,517,515,509,508,507,506,506,504,502,501,501,503,503,521,522,523,526,528,530,533,533,634,634,639,640,0,0,0,0,0,0,0,0,0,0,1612,1612,1612,1612,1590,1590,1590,1583,1583,1583,1575,1575,1568,1554,1547,1547,1540,1540,1527,1520,1520,1520,1520,1520,1520,1513,1513,1500,1500,1500,1500,1487,1481,1481,1481,1481,1462,1462,1449,1449,1605,1605,1605,1605,1605,1597,1590,1590,1597
0,0,2416,2416,2416,2416,2416,2416,2416,2399,2382,2382,2416,0,0,0,0,0,0,2743,2743,2721,2721,2721,700,699,699,716,716,709,709,718,719,633,630,624,621,617,611,609,604,601,597,595,583,572,567,562,557,556,556,556,508,507,507,508,508,508,520,523,519,518,517,517,517,519,537,540,536,536,520,520,520,521,523,523,515,506,505,504,504,504,504,499,498,498,498,498,502,517,519,520,522,523,527,529,529,634,632,632,634,636,638,0,0,0,0,0,0,0,0,1612,1612,1612,1605,1583,1583,1583,1568,1568,1568,1575,1568,1568,1554,1547,1540,1533,1533,1527,1520,1520,1520,1520,1520,1500,1500,1507,1500,1487,1487,1481,1474,1474,1474,1474,1468,1456,1456,1456,1456,1605,1597,1597,1605,1605,1597,1590,1590,1597
0,0,2382,2382,2399,2399,2399,2399,2399,2399,2382,2382,2382,0,0,0,0,0,2743,2743,2743,2721,2721,2721,690,690,692,710,706,703,659,659,623,622,621,617,615,607,603,598,594,592,592,588,582,572,567,555,553,552,551,551,553,507,507,508,508,508,519,521,518,516,514,513,513,532,535,539,533,533,517,517,517,519,520,514,512,505,503,503,503,503,500,496,495,495,495,495,502,514,516,517,518,520,524,527,530,636,629,629,631,633,636,0,0,0,0,0,0,0,0,0,1597,1597,1605,1583,1583,1583,1568,1568,1568,1568,1561,1561,1554,1547,1540,1533,1533,1527,1520,1520,1520,1520,1500,1500,1500,1500,1493,1481,1481,1481,1474,1474,1468,1468,1468,1456,1456,1449,1449,1449,1597,1597,1605,1605,1605,1597,1583,1583
0,0,2366,2366,2382,2399,2399,2399,2399,2399,2382,2382,2382,0,0,2145,0,0,2186,2186,2743,2721,2721,2721,689,689,690,709,703,702,654,654,619,613,612,612,611,600,599,591,588,586,579,578,576,572,566,554,550,547,547,548,504,504,505,508,509,515,517,519,515,512,511,511,512,530,531,535,533,514,514,514,515,517,517,513,506,502,501,501,501,500,498,493,491,490,490,491,510,510,511,514,515,518,521,523,527,527,629,629,630,631,634,0,0,0,0,0,0,0,0,0,1575,1575,1590,1583,1583,1583,1575,1568,1568,1561,1561,1561,1554,1554,1547,1527,1527,1527,1527,1527,1520,1500,1493,1493,1493,1493,1493,1481,1474,1474,1474,1474,1468,1468,1462,1456,1456,1443,1431,1431,1590,1590,1597,1605,1597,1597,1583,1583
0,0,2366,2366,2382,2382,2399,2399,2366,2366,2382,2382,2416,0,0,0,2145,2145,2145,2158,2743,2721,2721,2743,688,688,690,702,639,639,644,609,607,605,600,600,596,593,588,586,584,579,573,573,571,565,563,554,544,543,543,501,501,503,505,508,510,512,515,518,512,511,511,511,512,527,531,533,532,512,512,513,513,516,515,509,502,500,499,499,499,498,492,488,488,488,488,488,489,508,509,509,511,513,516,521,523,528,630,626,626,626,633,633,0,0,0,0,0,0,0,0,1575,1575,1583,1583,1583,1583,1561,1561,1561,1554,1554,1554,1540,1540,1540,1527,1520,1520,1520,1520,1520,1500,1493,1493,1493,1493,1493,1481,1468,1468,1468,1468,1468,1462,1456,1456,1449,1443,1431,1431,1583,1583,1590,1597,1597,1597,1583,1583
0,0,2366,2366,2382,2382,2382,2382,2366,2366,2382,2416,2416,2416,0,2145,2145,2145,2145,2158,2721,2743,2721,703,688,688,655,654,638,615,615,600,597,593,593,593,589,589,580,575,573,570,566,565,562,560,560,550,542,541,541,500,500,502,504,507,509,512,514,515,511,509,509,509,524,525,532,531,512,510,510,511,512,514,511,504,500,499,498,498,497,494,488,486,485,485,485,485,488,507,507,507,508,510,512,516,521,525,530,619,619,622,627,631,0,0,0,0,0,0,0,0,1575,1575,1575,1583,1575,1568,1561,1554,1554,1554,1554,1547,1533,1533,1533,1527,1520,1520,1520,1520,1520,1500,1493,1493,1481,1481,1481,1481,1468,1468,1468,1468,1462,1456,1449,1449,1449,1443,1443,1583,1583,1583,1583,1583,1583,1583,1583,1583
0,0,2350,2350,2350,2366,2382,2382,2366,2366,2382,2382,2433,2433,2145,2145,2145,2158,2172,2172,2200,2228,2721,696,696,656,652,638,616,615,598,595,588,588,588,584,584,578,572,571,570,562,561,557,556,555,550,548,536,536,499,499,500,501,503,505,508,511,513,515,507,507,507,509,521,523,531,527,509,508,508,508,510,512,508,500,497,496,496,495,495,489,485,483,482,482,482,482,484,485,503,503,505,507,509,514,519,521,530,616,616,621,623,626,0,0,0,0,0,0,0,0,1583,1575,1575,1575,1568,1561,1561,1554,1554,1554,1540,1540,1533,1533,1533,1533,1527,1520,1513,1507,1500,1500,1493,1493,1481,1481,1481,1481,1474,1468,1462,1462,1462,1456,1449,1449,1449,1443,1443,1449,1583,1583,1575,1575,1583,1583,1583,1590
0,0,2350,2334,2334,2350,2366,2382,2366,2366,2382,2382,2382,2172,2145,2145,2145,2172,2186,2200,2200,2200,2200,692,643,638,630,626,615,613,598,583,580,572,569,569,569,569,571,557,554,554,554,553,548,547,545,543,536,535,498,498,500,501,502,505,508,510,513,505,505,505,505,519,519,520,527,527,506,506,506,507,509,509,503,497,495,495,495,493,490,482,482,480,478,478,479,480,480,482,500,500,501,504,506,509,517,520,523,616,616,621,622,626,0,0,0,0,0,0,0,0,1583,1583,1568,1568,1568,1561,1561,1554,1547,1547,1540,1540,1527,1527,1520,1520,1513,1507,1500,1500,1493,1493,1500,1493,1481,1481,1474,1468,1468,1462,1456,1456,1456,1456,1449,1449,1449,1449,1437,1437,1583,1575,1575,1575,1575,1583,1590,1590
0,0,2334,2334,2334,2350,2366,2382,2382,2382,2382,2382,2382,2172,2172,2145,2145,2172,2214,2228,2214,2200,644,644,637,632,625,621,609,607,583,576,568,566,566,558,558,560,556,555,550,546,545,544,544,543,541,539,536,533,498,498,500,501,502,505,508,510,523,503,503,503,503,515,516,517,525,505,504,504,505,506,507,505,497,495,493,493,493,490,487,480,478,477,477,476,476,476,478,479,498,498,498,499,502,506,509,518,520,520,621,621,622,0,0,0,0,0,0,0,0,1583,1583,1575,1561,1561,1561,1561,1554,1547,1533,1533,1533,1533,1527,1527,1520,1513,1500,1500,1500,1493,1493,1493,1493,1493,1493,1474,1462,1462,1468,1462,1456,1456,1456,1456,1449,1449,1443,1443,1437,1437,1583,1575,1575,1575,1575,1583,1590,1597
0,0,2303,2303,2318,2350,2350,2350,2366,2366,2399,2399,2399,2145,2145,2158,2158,2145,2145,2158,2228,2228,617,617,633,623,622,609,607,595,580,565,562,550,550,549,549,551,550,546,542,541,541,540,539,537,536,536,533,498,498,498,500,501,502,506,509,519,520,501,501,502,502,514,514,515,523,503,502,502,502,503,504,502,496,493,492,492,490,488,483,476,475,474,473,473,473,474,474,476,478,495,495,497,498,505,508,513,518,521,0,0,0,0,0,0,0,0,0,0,0,1583,1583,1575,1561,1561,1554,1554,1547,1547,1533,1527,1527,1527,1520,1520,1520,1507,1500,1500,1500,1493,1493,1493,1487,1481,1474,1468,1462,1462,1462,1456,1456,1456,1449,1449,1449,1443,1437,1437,1437,1437,1575,1575,1583,1583,1583,1583,1597,1597
0,0,2228,2186,2186,2272,2272,2287,2303,2243,2228,2228,2228,2145,2145,2172,2172,2145,2145,2158,2158,622,614,609,605,603,603,604,593,593,566,558,556,550,548,543,543,543,544,541,537,534,532,532,532,532,531,531,496,495,495,498,500,501,502,507,510,517,518,500,500,501,502,513,513,514,521,500,500,500,501,502,502,498,493,491,490,490,488,483,476,474,472,471,471,471,470,470,471,472,474,474,493,493,497,499,507,510,515,519,0,0,0,0,0,0,0,0,0,0,0,0,1568,1554,1554,1554,1554,1554,1547,1547,1540,1527,1527,1520,1520,1520,1513,1507,1500,1500,1500,1493,1493,1481,1474,1474,1474,1468,1462,1462,1456,1456,1456,1456,1449,1449,1449,1437,1437,1437,1437,1437,1568,1575,1583,1583,1583,1597,1597,1597
0,0,2172,2172,2186,2186,2186,2186,2214,2214,2214,2214,2214,2158,2158,2172,2172,2172,2172,2186,619,618,606,603,602,596,596,597,588,577,565,557,553,547,541,536,536,536,536,536,534,531,528,526,524,524,526,527,493,493,495,498,500,501,502,514,514,514,515,499,499,499,510,510,510,511,519,499,498,498,498,500,499,496,492,489,488,487,486,476,473,471,470,469,468,468,467,467,467,469,472,473,490,491,494,498,504,507,512,516,519,0,0,0,0,0,0,0,0,0,0,0,1547,1547,1547,1554,1554,1547,1547,1540,1533,1527,1520,1507,1507,1507,1500,1500,1500,1500,1487,1481,1481,1474,1468,1462,1462,1468,1462,1456,1449,1449,1449,1449,1449,1449,1443,1431,1431,1425,1425,1425,1425,1575,1590,1590,1590,1597,1605,1605
0,1866,1866,1897,1918,2186,2007,2007,2080,2080,2080,2105,2158,2158,2158,2172,2172,2186,2200,2200,619,615,603,596,591,590,584,582,579,574,563,555,549,544,539,535,531,528,527,526,526,529,526,522,522,521,521,521,493,493,495,498,500,502,503,512,511,511,497,497,498,498,508,508,508,509,517,497,496,496,496,497,498,493,488,487,486,485,484,474,471,469,466,466,466,465,465,465,465,466,468,471,475,489,491,494,500,504,509,514,515,0,0,0,0,0,0,0,0,0,0,0,1547,1547,1547,1547,1527,1527,1527,1527,1520,1520,1520,1507,1500,1500,1500,1493,1493,1493,1481,1481,1481,1474,1468,1462,1462,1462,1449,1449,1449,1449,1449,1443,1443,1443,1437,1431,1431,1425,1425,1425,1425,1575,1583,1590,1590,1597,1597,1597
0,1866,1866,1876,1907,1950,2007,2007,2068,2068,2080,2105,2118,2145,2158,2158,2172,2172,2172,2186,622,607,602,594,588,584,580,580,577,569,562,553,548,543,538,533,531,527,526,525,525,527,526,522,520,519,518,493,493,493,496,498,500,502,504,511,510,510,496,496,497,498,508,507,507,509,517,495,495,495,495,496,497,488,488,487,486,484,474,472,469,467,465,465,465,463,463,463,463,463,466,469,475,488,490,492,500,503,507,513,515,0,0,0,0,0,0,0,0,0,0,0,1554,1547,1547,1547,1527,1527,1527,1520,1520,1520,1513,1507,1500,1493,1493,1493,1493,1493,1481,1481,1481,1468,1468,1468,1468,1462,1449,1449,1449,1449,1443,1443,1443,1437,1437,1431,1431,1425,1425,1425,1425,1575,1583,1590,1590,1597,1597,1597
0,1866,1866,1876,1907,1950,2007,2007,2068,2068,2080,2118,2118,2145,2158,2158,2172,2172,2172,2186,623,607,602,594,588,584,580,580,577,569,562,553,548,543,538,533,531,527,526,525,525,527,526,522,520,519,518,493,493,494,498,499,500,502,508,511,510,510,496,496,497,498,508,507,507,509,517,495,495,495,495,496,497,488,488,487,486,484,474,472,469,467,465,465,465,463,463,463,463,463,466,469,488,488,490,492,500,503,507,513,515,0,0,0,0,0,0,0,0,0,0,0,0,1568,1554,1547,1533,1527,1527,1520,1520,1520,1513,1513,1513,1493,1493,1493,1493,1493,1487,1481,1481,1468,1468,1468,1468,1462,1456,1449,1449,1449,1443,1443,1443,1437,1437,1437,1437,1425,1425,1425,1425,1575,1583,1590,1590,1605,1597,1597
